# .PCD v0.7 - Point Cloud Data file format
VERSION 0.7
FIELDS x y z intensity
SIZE 4 4 4 4
TYPE F F F F
COUNT 1 1 1 1
WIDTH 1398
HEIGHT 1
VIEWPOINT 0 0 0 1 0 0 0
POINTS 1398
DATA ascii
0.36696771 5.4439864 0.11171333 60
-1.2517337 4.6675382 0.2091714 48
0.67787576 5.5788183 0.083959147 47
-5.7885981 3.3524075 0.054637596 11
-5.7561111 3.3623056 0.058442876 10
-4.8572979 3.3793383 0.18062149 9
-4.8110924 3.5022116 0.17599843 9
-2.2297063 5.0563254 0.26793656 53
-3.9747016 4.0479817 0.22673409 42
-4.7858067 3.5112143 0.17854093 23
-4.2364478 3.7840707 0.22288691 48
0.46242899 5.3951917 0.31533328 28
3.7974353 9.9914331 -0.49955437 12
0.59095418 6.7943935 0.093369052 47
0.37573442 6.5422974 0.13370924 46
0.39880884 6.5658178 0.12999062 42
3.8250983 9.9587831 -0.49606881 18
0.61467135 6.793458 0.093406364 45
3.1619194 8.6379452 -0.26524696 47
3.234931 8.7574186 -0.28672275 40
3.3081808 8.8746128 -0.30788526 11
3.8591795 9.9446793 -0.49570212 28
3.463012 9.1245947 -0.35301325 4
0.63980138 6.8240132 0.088439152 46
3.8892045 9.9193001 -0.49346432 26
0.66419369 6.8347454 0.08660011 46
3.9278452 9.9179811 -0.49528083 22
2.2126451 8.0366821 -0.13438149 39
2.2848988 8.0966949 -0.14615829 41
2.3923283 8.294136 -0.18040939 45
1.372322 7.4383583 -0.018050151 41
8.3817396 3.7026703 -0.22034247 13
-7.7013569 3.3763702 0.087055489 6
-3.648165 5.2012591 0.35930237 45
-2.7723985 5.6814585 0.36992988 48
-3.0558257 5.5844784 0.36241838 38
-6.6214418 3.3851078 0.20915835 8
-7.6274018 3.3780406 0.095458671 5
-6.5899868 3.3997445 0.21188854 5
-6.5619154 3.5047874 0.20924936 11
-2.5415578 5.8238664 0.36785212 47
-3.2275279 5.4741955 0.36239466 41
-7.8190031 3.2299039 0.080292746 12
-3.5357664 5.2780414 0.36020854 43
-6.52668 3.5170677 0.21247302 27
-6.2353368 3.5715394 0.24144684 44
-6.2095342 3.5856738 0.24343704 44
-4.6414876 4.6448708 0.32631156 48
-3.3680689 5.3969979 0.36046943 40
-7.5517111 3.3784525 0.1041085 6
-2.7040968 5.8416114 0.35662821 49
-2.5281897 5.8481331 0.36592266 47
0.46417287 5.4018402 0.50663739 18
0.63806659 9.7559652 -0.02818604 36
0.39629525 9.2741241 0.03116004 37
0.42807627 9.2162876 0.038279697 18
0.67349917 9.7945251 -0.033006027 23
0.71155488 9.8944492 -0.045379117 28
3.4564056 13.336846 -0.50716823 12
3.9099805 15.036989 -0.72244364 12
3.9547024 15.003828 -0.71969169 12
3.127718 13.192467 -0.48160145 32
2.6899626 11.72 -0.29433593 30
4.0046911 14.981463 -0.71839398 12
0.74700195 9.9148912 -0.048004821 30
2.8373284 12.018111 -0.33359632 14
4.0509992 14.95573 -0.71661454 12
1.9040297 11.219741 -0.21878202 31
2.4044585 11.099944 -0.21336265 25
1.9471321 11.241706 -0.22212704 34
2.4825144 11.299374 -0.23908038 18
0.16004115 8.26406 0.15462928 28
3.004216 -10.556039 -0.16249652 13
3.0507782 -9.6168489 -0.052516535 23
2.9736032 -10.590331 -0.16571255 16
2.9479451 -10.637579 -0.17062671 15
3.1708574 -8.646431 0.057334706 7
2.9140644 -10.660142 -0.17238553 15
4.8743949 -7.5733037 0.093136236 13
3.055048 -9.7620401 -0.069812253 20
2.6344171 -10.817311 -0.18403347 15
4.8448915 -7.5839815 0.093821451 12
-3.991853 -9.7184248 -0.1427892 16
-7.6523752 -3.6080041 0.081426188 24
-4.0491962 -7.9876199 0.044520423 28
-3.9964693 -9.6380787 -0.13402362 15
-4.3957005 -7.2953191 0.095147178 40
-4.0421729 -8.8993692 -0.05440779 22
-4.0046759 -9.5668583 -0.12648197 19
-4.0132647 -9.4975042 -0.11918481 15
-4.0674438 -7.9548993 0.04692845 43
-4.4287419 -6.7700362 0.14626984 54
-4.5672665 -6.4299374 0.16968779 56
-5.3433318 -5.1069632 0.223527 49
-5.2321367 -5.3289089 0.21517526 50
-5.4505472 -5.0608706 0.21726416 50
-4.688107 -6.1781845 0.18460481 58
-4.7184906 -6.1276555 0.18699329 56
-4.9459653 -5.8072701 0.19808529 50
-10.653011 3.3676169 0.14724867 15
-10.542843 3.3733451 0.15648572 7
-9.1842823 3.3931761 0.27087548 6
-5.1998482 5.9761329 0.44860217 47
-9.1887417 3.5094793 0.26703116 22
-7.8805437 4.2490535 0.34785923 52
-7.1572571 4.4835329 0.39431122 41
-9.1141901 3.5157564 0.27307472 41
-3.7161057 7.1123338 0.44742259 35
-6.9368277 4.7020221 0.40092823 42
-5.6488948 5.7817845 0.43256155 46
-10.390355 3.3671315 0.16962437 7
-8.8413229 3.5608385 0.29441974 45
-5.880825 5.5646286 0.43028435 48
-7.1793365 4.5664997 0.38887128 43
-6.4623108 4.8407006 0.42921177 46
-3.3959212 7.4260845 0.43693736 44
-6.8936667 4.7099705 0.40378484 41
-7.11935 4.6033983 0.3917537 37
-4.5326152 6.5458932 0.44859239 42
-1.1377375 9.1085634 0.3602657 2
-1.3054376 8.6280212 0.39888373 1
-1.0415983 8.9079313 0.37907216 1
-7.4026031 52.561718 -3.4914241 11
-7.9849129 52.682423 -3.5104694 11
-1.9437792 10.396635 0.23503779 1
-8.5650358 39.963699 -2.4269004 6
-8.3609028 40.37352 -2.4577897 12
-1.6926298 8.9502945 0.36375526 3
-8.7610245 45.336956 -2.8908129 16
-8.613327 45.380569 -2.8918023 8
-8.260767 40.596607 -2.474894 12
-8.0653734 45.084019 -2.8564219 8
-7.9287329 45.182194 -2.8624849 8
0.40826863 5.404829 0.69709951 18
0.42675304 5.3826237 0.69904637 53
0.44541782 5.3762898 0.69959873 60
0.46447438 5.3878188 0.69858259 12
-8.1441641 40.747314 -2.4855216 6
-2.9710157 23.592272 -0.91991836 21
12.734262 10.072842 -0.20836337 66
11.955902 15.923576 -0.53671461 30
12.954095 5.1189847 -0.0017054843 49
12.027526 15.910643 -0.5393911 46
12.351567 15.88777 -0.55422097 22
12.81901 2.4447756 0.076577589 85
13.09964 3.344008 0.035513565 76
12.902739 7.4621596 -0.089164689 61
12.95274 4.4657388 0.018700166 69
12.872734 9.4100437 -0.18198557 42
12.670711 1.1834577 0.10513191 54
13.212043 5.5404162 -0.036345795 51
13.125181 3.6868894 0.025436563 49
12.381593 15.812448 -0.55051178 15
13.166519 4.4885335 0.00073270319 64
12.931202 6.498611 -0.050402835 52
13.159953 5.1036949 -0.017592864 37
13.102125 7.5203733 -0.10645814 31
12.946985 7.307961 -0.085605696 42
12.578471 0.52813083 0.11702804 100
3.118017 -19.308081 -0.53191525 18
3.143142 -19.012455 -0.50660676 30
3.0486543 -19.303865 -0.5308041 22
6.0421209 -8.4812098 0.28474662 21
3.1412063 -18.551411 -0.46670195 14
3.0837829 -16.250277 -0.26725242 16
3.008692 -9.8566551 0.28088275 43
2.9847777 -19.338879 -0.53316981 13
5.5924163 -7.9381313 0.34538689 12
-3.8447559 -17.697573 -0.42713973 26
5.5411592 -7.9146671 0.34948942 7
-3.864701 -17.508505 -0.41148683 28
3.0912819 -15.955901 -0.24197157 33
5.5058794 -7.921113 0.35065439 5
3.0803118 -14.972291 -0.15711911 27
3.0513711 -13.014751 0.011354608 34
3.0653844 -10.651512 0.21248369 35
3.1354768 -18.086678 -0.42645451 19
3.0938537 -15.332312 -0.18829234 25
3.0808878 -14.686474 -0.13254614 34
-6.3890734 -5.2906976 0.41105804 53
-6.5636678 -5.1246848 0.40746853 49
-5.8869505 -4.722034 0.47702745 18
-5.9352145 -4.7242718 0.47346541 16
-6.5895305 -5.1064892 0.40655592 49
-6.0776782 -4.7966442 0.45947263 35
-6.6153498 -5.0881743 0.40564349 47
-6.642736 -5.0709128 0.40455428 47
-10.589944 -3.5411873 0.14818685 18
-9.0694714 -3.600414 0.27433714 10
-10.613621 -3.5066795 0.14710324 18
-4.0535865 -8.1867886 0.35063848 12
-9.1391201 -3.5854363 0.26899818 12
-9.2224703 -3.5788958 0.26224324 11
-7.4585347 -4.4738274 0.37171045 47
-6.6668572 -5.0511918 0.40381876 48
-10.620785 -3.4710631 0.14743988 19
-3.9762714 -9.5873337 0.24376135 30
-8.1985197 -3.9246778 0.33497748 46
-9.3139801 -3.5786476 0.25460407 10
-4.4717922 9.6598072 0.59681761 48
-7.8816414 16.660744 0.18320249 30
-7.8094044 16.660612 0.18499069 64
-7.8830147 16.95352 0.16937761 35
-7.7390442 16.80567 0.17986475 52
-6.4652538 10.54234 0.50166219 87
-7.4366837 17.720257 0.14337151 40
-7.1855221 17.995079 0.13570051 38
-7.6636639 16.806295 0.18165772 40
-5.138938 8.8854723 0.61431277 18
-5.4142294 9.1917753 0.59262574 10
-7.1826711 17.480011 0.16062741 35
-7.1364756 17.541059 0.15870993 49
-5.0839376 8.865325 0.61680704 16
-5.0343199 8.8534431 0.61876929 20
-14.198782 3.3739035 0.36520979 9
-7.3629999 16.92198 0.1832789 64
-6.2830768 9.1679573 0.56687319 38
-14.096909 3.4060428 0.37018403 6
-6.4606218 9.8419867 0.53235275 100
1.7655581 11.348346 0.57255965 42
1.8038775 11.333375 0.57314342 49
1.84211 11.318279 0.57372713 33
0.46648189 5.4049373 0.88675129 11
1.3038174 34.439083 -0.63477618 47
0.58155227 34.339958 -0.63004678 29
6.1201005 40.186165 -0.94951159 7
5.0187111 40.530396 -0.96171552 7
5.161088 40.461391 -0.9587689 7
1.4252921 34.475418 -0.63667959 47
6.2644224 40.144939 -0.94823724 7
1.5460496 34.483383 -0.63711828 52
-5.9446959 18.350765 0.14329414 14
-10.368282 31.623701 -0.59715337 22
6.3931651 40.048954 -0.94405562 7
1.6695688 34.560772 -0.64121741 47
-10.352865 31.944979 -0.61283654 22
15.509173 29.613266 -0.55061251 22
-10.33785 32.274113 -0.62893909 28
11.940252 22.455755 -0.13696308 18
14.054995 15.92878 0.08944349 31
13.230084 1.7344338 0.50827944 87
13.421647 10.62435 0.30690387 9
13.464936 10.433295 0.31147656 83
13.470882 8.9544353 0.35725799 42
13.51356 12.576589 0.2357264 11
13.306407 14.848892 0.1567456 14
13.283593 1.6956278 0.5058521 83
13.476963 11.858506 0.26268891 54
13.322116 6.0177789 0.44008973 100
13.384548 14.833514 0.15477531 4
13.413121 12.055964 0.25808385 54
13.461412 14.816277 0.15290765 26
13.241138 4.7667603 0.46908709 11
13.241637 4.713253 0.47003105 19
13.277152 0.28466958 0.5118373 68
13.401504 13.944097 0.18873392 26
13.291237 3.3436987 0.48897806 100
13.309155 4.6380577 0.46814987 100
13.453662 7.5348587 0.3975589 51
12.941079 -3.3639069 0.5060463 38
13.196166 -2.1593139 0.50673616 45
12.918697 -2.8453174 0.51364154 28
13.088021 -0.60816675 0.5208745 33
13.105769 -0.65370715 0.51985657 21
12.970304 -4.4821773 0.48727426 45
13.267849 -1.2089525 0.50955063 100
13.03769 -3.8209474 0.49479815 40
13.924112 -3.2225707 0.45943794 67
13.890479 -2.9656892 0.46409008 73
13.960329 -0.79285139 0.47608778 64
13.279642 -2.7375154 0.49693522 100
13.960171 -1.0341306 0.4752551 64
13.677028 -4.3714528 0.4552007 47
13.948512 -1.0810593 0.47565648 49
13.340549 -3.1802652 0.48877093 64
13.717852 -3.8731446 0.46090683 57
13.312968 -2.791925 0.49468592 100
13.077727 -4.2244425 0.48649558 97
13.804325 -3.3435326 0.46385792 90
-4.4765692 -38.474991 -0.86886507 7
-3.5820425 -30.45496 -0.44475016 24
7.3530364 -11.901506 0.45714763 7
-3.6012242 -29.781744 -0.40993831 38
4.8118024 -7.654109 0.71244699 3
-3.6272986 -29.232176 -0.38162455 37
7.4389982 -11.866689 0.4565492 11
4.8435073 -7.7766423 0.70611423 78
3.3842196 -34.983284 -0.66483313 18
5.705112 -9.0426245 0.62741923 8
-3.6402018 -28.577225 -0.34774455 26
3.9853106 -8.1555815 0.70760053 16
4.8430233 -9.8852463 0.60786986 59
4.2656188 -10.8434 0.57191765 65
3.4081237 -33.890362 -0.60787648 17
4.4100618 -10.552606 0.58375704 92
3.2984121 -35.427601 -0.68777722 24
4.3817687 -10.589153 0.5824573 83
4.9029899 -7.9429569 0.69710457 25
3.2610369 -12.914308 0.48088798 23
-7.5913777 -5.8836389 0.6403873 61
-5.9707046 -4.7128425 0.74768502 20
-7.3638501 -6.0531268 0.64483035 54
-5.8517346 -4.8290882 0.74913031 25
-7.6199064 -5.8618627 0.63981873 54
-4.8946452 -9.3553724 0.60031265 50
-4.9174671 -9.319665 0.60132283 50
-4.2521791 -9.9070368 0.59086573 46
-4.5599899 -8.479743 0.64938807 43
-7.6516018 -5.84232 0.63903582 61
-4.2776384 -8.5322542 0.65464741 7
-4.3198166 -8.5389051 0.65322059 33
-4.625711 -8.5247574 0.64551753 19
-4.3553643 -8.5331106 0.65253663 31
-4.6708674 -9.3299122 0.60746729 40
-5.1036019 -9.1287193 0.6047948 48
-7.7026472 -5.836709 0.63696682 66
-5.1159048 -9.0771475 0.60676318 62
-4.0060902 -8.9695663 0.6411615 52
-4.0145974 -8.9076977 0.64386827 47
-10.366833 18.982468 0.7724486 48
-10.558892 17.978527 0.78560603 23
-4.9523449 9.2968521 0.97483766 12
-5.2309074 9.2567348 0.97255105 9
-10.226342 18.887051 0.77532399 56
-5.1852479 9.2537746 0.97307658 9
-10.344077 19.247211 0.76863933 52
-10.467253 17.413157 0.79501134 56
-13.13777 16.071619 0.78246796 46
-9.7962914 11.999653 0.87973857 29
-13.093616 16.121542 0.78236175 54
-13.358925 12.109776 0.82918406 45
-10.368939 9.5320873 0.90283471 19
-10.286654 9.5221348 0.9041509 35
-9.6692085 20.840208 0.75036407 21
-12.820619 15.906344 0.78872871 63
-9.5794907 21.037876 0.74805754 21
-8.6202307 18.488882 0.79698223 41
-12.921804 16.154606 0.7840969 50
-10.17469 9.4881239 0.9061774 39
0.39277679 5.4228449 1.0753204 5
0.41130081 5.3946109 1.0758388 31
0.42977118 5.3743114 1.0762172 55
0.44878715 5.3859363 1.0760374 28
0.46838632 5.4174852 1.0755091 8
-0.19997394 53.719147 0.23033975 16
-0.38304895 53.387032 0.23581843 31
1.7803204 45.259995 0.38092205 90
25.835758 52.354733 0.19247393 20
25.017227 52.524708 0.19467549 20
25.119879 52.268379 0.19812308 20
25.227949 52.026413 0.20129959 19
-0.55352867 52.992477 0.24240004 30
25.412001 51.944607 0.2014855 39
1.9406281 45.320621 0.38002059 100
13.990435 29.596189 0.62189001 53
13.692458 29.218117 0.6295976 6
3.7803056 46.814178 0.35509464 94
15.906227 31.137861 0.58612245 22
13.672912 29.446718 0.62607169 6
27.94455 0.40480927 0.73135149 10
21.551075 7.2395568 0.81185359 45
20.750425 7.4472685 0.8225643 16
20.579096 0.92996705 0.84801453 18
20.530313 -0.40896377 0.84911728 22
17.314121 0.83940965 0.89988869 15
17.601316 5.9592776 0.87813967 37
13.222797 0.41182092 0.96513218 83
16.367479 -1.335144 0.91436344 97
13.077393 4.447917 0.95431447 12
15.296069 4.7004809 0.91964251 7
15.10614 6.2220211 0.91327441 41
13.363243 0.054580692 0.96302146 51
13.370014 0.37325609 0.96281606 72
13.230203 -0.48643431 0.96498775 31
13.397557 -0.21663421 0.96245259 18
13.438304 4.7284055 0.94730115 34
13.300556 -0.35315293 0.9639436 14
13.233105 -0.083307393 0.96508873 63
13.299229 0.23537131 0.96399927 25
11.547683 -17.202454 0.82952714 11
5.7989421 -8.4486532 1.0031161 13
5.7359324 -8.4155121 1.0040985 16
5.7211628 -8.4605598 1.0035527 20
15.724786 -1.8789172 0.92355752 61
5.6531386 -8.418457 1.0047016 18
13.052223 -10.657205 0.90055281 15
12.848302 -3.2972486 0.96381754 20
12.892745 -3.3558879 0.96287626 9
5.5249162 -8.2794189 1.0077435 10
14.528769 -12.141054 0.86649626 60
13.071865 -7.2835865 0.9340229 100
13.137924 -8.5589361 0.92144752 24
14.517365 -1.5809656 0.94319159 3
13.092458 -4.1851201 0.95573729 33
14.435691 -12.151235 0.86746728 86
13.205322 -9.9700766 0.90622425 100
13.211779 -8.4145432 0.92187464 100
13.229785 -9.5637255 0.91019857 75
13.590963 -11.259103 0.88744926 45
-5.5170207 -46.645287 0.34119377 47
-3.5930111 -30.443119 0.62867093 23
-3.619396 -29.82659 0.63922787 27
-3.6213496 -29.099985 0.65177566 26
-3.6292803 -28.414602 0.66358185 31
-3.6404321 -27.75061 0.67499948 30
3.3881578 -35.192356 0.558927 31
2.9548783 -16.626055 0.880665 75
3.3981767 -33.932751 0.58080214 29
-4.2752886 -15.150105 0.88666308 83
3.2891889 -35.489761 0.55375147 31
-3.6374516 -12.733191 0.93121117 12
2.9533575 -17.827791 0.85995382 18
3.1772587 -16.53265 0.88198966 78
2.7350094 -12.637867 0.94948894 2
3.1250305 -15.577434 0.89846784 21
-3.6656222 -12.667765 0.93210804 39
2.9648368 -15.964127 0.89204603 33
3.1888165 -35.79488 0.54843408 40
2.9234798 -11.635377 0.96623939 36
-4.6818447 -8.0289764 0.99705017 19
-5.9573064 -10.979675 0.93946952 43
-5.8629327 -4.6963258 1.0246564 30
-8.7343416 -7.1253128 0.95461088 17
-5.924027 -4.708334 1.0235834 21
-5.962852 -4.7032185 1.0230336 23
-9.0297337 -6.9460263 0.95194429 25
-9.0764637 -6.929904 0.95138192 47
-9.1393385 -6.9253397 0.95044535 68
-4.9640722 -9.0291471 0.97914022 8
-5.6336193 -9.0527573 0.97156203 9
-5.6574402 -9.0202141 0.97176826 9
-5.7066822 -9.0258369 0.97113258 4
-6.1242428 -10.747247 0.94122708 66
-9.1731634 -6.8992786 0.95018232 68
-6.1503234 -10.705825 0.94156921 43
-6.3556013 -10.296144 0.94539213 68
-4.6740856 -8.8109894 0.98542023 30
-4.0717993 -10.347659 0.96699053 14
-6.1657763 -10.647285 0.94227672 33
-36.619839 32.784069 1.9735502 24
-21.483088 18.691401 1.6367991 25
-10.232612 9.43647 1.4004798 15
-36.637108 32.340961 1.9686455 24
-21.443445 18.789642 1.6374526 38
-10.149058 9.4278221 1.3994244 30
-20.231934 33.269798 1.819725 100
-36.622955 32.10157 1.9657407 23
-10.067174 9.4200506 1.3984014 42
-23.735048 14.708057 1.6242343 94
-23.639292 14.764709 1.623476 74
-23.579113 14.843021 1.6233944 78
-20.280514 30.205536 1.7753128 18
-20.189529 30.29883 1.7759075 18
-23.571232 14.953972 1.6243119 100
-11.098672 16.502508 1.5021183 5
-20.151133 27.281097 1.7327478 33
-21.860525 6.6033506 1.539175 84
-35.049019 11.886427 1.765691 13
-10.000247 9.4253016 1.3977035 45
0.45690665 5.3837528 1.2640827 16
12.231401 58.490662 2.2293577 34
12.254667 57.575436 2.2138455 33
-9.1958685 51.7076 2.0717263 27
-9.116292 52.299408 2.0817521 28
12.164582 56.201042 2.1899271 32
-9.2949762 51.290501 2.064738 54
20.290468 47.807076 2.1046383 26
11.948335 22.563637 1.6307544 7
19.900414 47.336838 2.0938432 26
12.128675 55.076138 2.1705568 31
11.939915 22.336105 1.6271505 21
19.763226 47.950451 2.1026206 26
11.950979 22.167929 1.6246582 21
19.48554 47.743305 2.0970228 26
-11.308208 31.671518 1.7400522 49
12.206949 54.465927 2.1605697 30
17.598625 47.777836 2.0828896 25
11.959142 21.996408 1.6220917 21
17.951834 47.710529 2.0844579 25
19.597885 -0.82428896 1.536858 16
15.155042 6.0338755 1.4724959 9
13.895679 6.5449948 1.4540327 21
12.634834 -0.31139323 1.4041296 39
12.753554 -0.57271385 1.4065553 36
12.735274 -0.65867192 1.4062841 63
13.537675 -1.8206058 1.4234498 60
12.774826 -0.70433193 1.4070801 21
12.799573 -0.35911626 1.4072864 34
13.544505 4.2800741 1.4330735 37
13.531268 5.9206562 1.4431065 35
13.49374 -2.7135565 1.4252839 47
12.945815 -0.76039648 1.4103864 44
13.38519 -3.6075282 1.4269469 70
12.8871 5.3679047 1.4279349 12
12.857885 5.3037786 1.4269828 40
13.17239 2.0221434 1.4170029 34
13.455073 5.7221727 1.4403731 17
13.637514 5.7437811 1.4437307 5
13.048067 -0.41070458 1.4120408 49
21.72563 -18.098026 1.6930887 16
15.501717 -22.66844 1.6703891 36
6.0535107 -8.6137552 1.3596536 12
5.9163189 -8.4647579 1.3559445 41
21.761105 -20.151257 1.7175152 21
22.148186 -20.223064 1.7239188 27
21.559042 -24.609018 1.7711128 26
5.8078852 -8.3637342 1.353259 48
22.070112 -21.609344 1.7396017 52
15.257815 -14.631343 1.5585642 63
12.676614 -10.595092 1.4735532 16
14.240997 -16.354109 1.5669158 11
22.039768 -21.730373 1.7406734 61
21.768839 -19.601809 1.7110935 26
14.241877 -16.471315 1.5684903 55
5.7220087 -8.295598 1.3513077 40
13.842556 -16.112167 1.5585711 31
21.732841 -21.573175 1.7344638 50
12.656482 -10.359338 1.4705846 30
18.202084 -15.446524 1.6106752 19
-3.9610755 -43.315144 1.923921 18
-2.8573184 -31.075987 1.7109125 9
-2.8437681 -29.046425 1.6756381 8
2.4740818 -35.325714 1.7918346 24
-3.5961435 -12.842441 1.3985147 15
-2.8030338 -27.73308 1.6528124 12
-5.8323579 -20.405865 1.5328232 27
2.1311929 -23.010275 1.5761688 9
2.3831456 -35.899967 1.8016167 24
-5.8199759 -22.305546 1.56468 12
-2.9622972 -31.135416 1.7119706 19
-3.6681664 -12.916515 1.4000087 20
-5.8551641 -22.146355 1.5621084 31
-4.1927261 -16.632767 1.4641147 33
-3.5130649 -45.125591 1.955413 20
1.8078053 -34.21096 1.77073 22
-5.9073672 -22.036114 1.5604185 27
-2.902832 -27.747786 1.6531098 24
-5.8036275 -20.848469 1.5401376 44
-3.7066472 -12.881482 1.3995637 27
-4.9330959 -8.4664927 1.3359398 14
-4.9888701 -8.4244528 1.3357466 15
-4.6133986 -8.9598866 1.3410594 33
-4.9243188 -9.0688629 1.3449017 8
-4.9483109 -9.0410204 1.344654 8
-5.9955039 -4.7135286 1.2978932 19
-7.1662602 -13.81114 1.4328244 40
-11.562517 -8.7955017 1.4097263 40
-5.6733041 -9.0124483 1.3497977 8
-4.9879556 -9.0363159 1.3448708 8
-10.980624 -8.9860687 1.4046055 57
-5.8415189 -4.8360581 1.2972999 35
-7.1760101 -13.714719 1.4314109 28
-11.610879 -8.766943 1.4100337 61
-5.8662553 -4.8206148 1.2974352 33
-5.4573383 -9.7554064 1.3591226 40
-7.2883868 -13.360988 1.4267943 49
-7.3070669 -13.285766 1.425786 21
-7.4941545 -12.877804 1.421016 52
-4.4965487 -8.9689341 1.3404055 20
-41.02486 37.221691 4.0201364 12
-41.42857 37.322018 4.0387597 37
-41.317589 36.975151 4.0225077 61
-10.293223 9.6308489 1.90466 9
-21.436399 18.66325 2.6381018 31
-21.402866 18.766531 2.6403503 38
-41.18869 36.602371 4.004714 48
-21.375189 18.868637 2.6427991 17
-20.215258 33.265347 3.1861074 100
-10.17545 9.5911274 1.8988794 22
-22.338661 46.229198 3.8317871 11
-41.108788 36.275684 3.9904015 48
-9.4479637 19.769276 2.310127 21
-22.394873 46.735195 3.8568099 11
-10.065435 9.5574617 1.8936099 31
-21.939678 6.5504522 2.3514917 66
-20.363722 24.264011 2.8082979 4
-39.182304 11.921883 3.2706439 29
-24.002048 14.881953 2.6263001 56
-20.246063 27.226494 2.9256542 100
0.45936123 5.4210815 1.4542717 12
14.621566 54.443867 4.1412921 12
14.827437 54.453472 4.1448593 25
-9.1794853 42.505638 3.4368761 40
15.001307 54.342754 4.1418905 12
-9.2728691 42.230694 3.4237556 32
15.078091 53.87896 4.1196208 12
17.939173 47.126141 3.8332641 10
11.932425 22.516134 2.5152037 15
-9.3742075 42.031258 3.4145989 39
12.936586 40.954723 3.4346895 7
11.944159 22.327898 2.5067477 27
13.114521 41.022964 3.4411433 15
13.245015 40.938091 3.4391518 7
11.937613 22.12627 2.4972162 27
-9.4268789 41.596561 3.3929625 15
17.706131 53.167389 4.127635 24
17.944906 53.267586 4.1369052 12
15.899163 54.553566 4.166533 12
17.437975 53.579346 4.1434298 12
13.483748 7.3926611 1.9811926 76
13.308083 -3.8363268 1.899608 56
13.338677 -1.0624762 1.8743731 22
13.315859 7.2387505 1.9693135 20
12.605493 6.5645533 1.9185972 45
12.439965 6.9737539 1.921155 30
13.205498 0.6566723 1.8657548 33
13.299539 7.1114335 1.965313 30
13.16938 6.6942406 1.9487883 28
13.21391 -2.1002553 1.8743031 18
13.056017 4.1171613 1.8907795 54
12.97446 7.7626519 1.9671965 31
12.965705 7.8792682 1.9700065 31
12.991067 5.3032694 1.9090755 52
12.714785 6.567522 1.9238977 46
12.513529 -0.82189262 1.8290054 71
12.671537 -1.7056608 1.8422511 61
13.212001 7.0050564 1.9584787 24
12.997533 6.5484838 1.9370074 30
12.975483 -0.2802836 1.8526428 99
5.7282796 -8.5094652 1.7067181 31
21.122614 -24.293041 2.8789468 21
20.431442 -30.497015 3.1164317 28
21.085535 -27.373903 3.0035117 25
13.290239 -16.968077 2.3096409 30
15.937269 -16.076166 2.3690464 13
15.930959 -16.182304 2.3728068 42
15.90614 -16.269842 2.3751771 42
12.470746 -10.645675 2.0354488 35
5.6985407 -8.5282507 1.7066718 64
14.384898 -16.18969 2.3159497 12
21.231747 -18.465675 2.6648395 37
13.80129 -21.079182 2.5026014 36
14.140545 -16.020803 2.3004897 12
20.813307 -27.211624 2.987694 39
5.6222053 -8.4723883 1.7019453 63
21.202972 -18.570379 2.6673086 37
15.298962 -14.683041 2.2926514 40
21.567188 -21.125757 2.7736518 18
21.111481 -23.779865 2.8581939 16
1.1533333 -54.948338 4.0524693 12
2.1744204 -34.499287 2.9842181 20
2.0280242 -33.984879 2.9566581 14
0.68203795 -18.948727 2.1641707 21
0.84049386 -17.668396 2.097508 36
-4.7870736 -20.775417 2.2837381 20
0.93869936 -18.800362 2.1571391 61
-3.5148332 -13.214602 1.8855242 37
-8.1647024 -35.546906 3.0727799 5
-8.6882029 -31.389273 2.8680758 49
0.54170573 -46.839188 3.6260598 18
-8.3660011 -35.83535 3.0896358 5
0.81111395 -41.801815 3.3625009 14
-3.5399969 -13.138554 1.8820288 56
-8.7077398 -31.875954 2.8928623 50
-3.6248298 -44.393032 3.5004542 17
-2.4505398 -30.150429 2.7530768 18
-4.3445563 -19.873287 2.2330205 16
1.3655523 -15.362107 1.9788542 28
-3.5761211 -13.092424 1.8801918 15
-34.777241 -10.492587 3.0353923 95
-44.706909 -15.165007 3.5900435 28
-13.796051 -10.286928 2.0639038 88
-6.0158944 -4.690598 1.5737901 15
-13.151725 -10.70207 2.0512121 64
-5.8396134 -4.8655839 1.5722911 26
-43.053886 -14.440028 3.4984195 35
-13.893389 -10.28201 2.0677283 74
-20.921999 -10.059883 2.369132 35
-5.8424025 -4.832931 1.571344 45
-33.478741 -11.641284 2.9910853 21
-27.645676 -13.128788 2.745923 36
-9.4969206 -14.626307 2.0783854 62
-31.393864 -11.178025 2.8831882 28
-5.6830206 -9.0193052 1.7288978 55
-32.675823 -11.493867 2.9500556 20
-28.044514 -13.195282 2.7657092 41
-43.035721 -14.266034 3.4946764 44
-13.951913 -10.248594 2.0691011 74
-9.5423155 -14.583642 2.0777898 72
-39.581638 43.657417 6.2812123 42
-39.534801 43.913006 6.2950506 42
-39.484005 44.165829 6.3085475 57
-39.397148 44.364399 6.3165236 57
-9.9392862 11.075338 2.4750977 31
-43.334084 14.001234 5.1125727 40
-20.209682 33.265831 4.5574002 16
-21.359652 18.860424 3.650167 41
-38.95052 36.370266 5.7907944 11
-12.438204 15.841076 2.9296896 16
-21.188108 7.1581311 3.1200719 31
-40.879284 37.362228 5.9707723 12
-17.973999 40.120766 4.998467 7
-21.924868 6.3814769 3.1604171 18
-24.009682 14.891521 3.6277843 47
-41.259327 36.417629 5.9400387 24
-23.730017 15.534821 3.6374485 30
-40.707352 36.946201 5.9354911 49
-23.942291 14.966969 3.6263196 47
-10.284559 10.102025 2.4351811 10
0.384069 5.3971443 1.6421796 2
-9.7345743 42.267036 4.954536 7
0.40303734 5.4068918 1.6430808 24
0.42194206 5.4086037 1.6432847 48
-9.8277063 42.007015 4.934175 34
0.44022545 5.3783779 1.6406994 25
0.45988557 5.415813 1.6440414 9
12.660233 21.812239 3.3810539 11
12.706711 21.717134 3.3758998 13
-10.039766 41.610298 4.9045658 27
12.769538 21.65134 3.373734 27
17.475134 6.8366075 2.8116031 15
12.791136 21.514683 3.3643579 13
-10.292457 42.02964 4.9451237 27
13.12217 7.1869206 2.4735677 30
13.128036 7.1315608 2.4716606 15
17.46608 11.53229 3.003758 13
13.455991 13.841236 2.8591838 22
13.578529 13.776551 2.8626895 9
-13.022575 41.134892 4.9317904 27
15.068596 4.822763 2.5497096 26
13.419544 -3.1857426 2.3691378 31
12.777757 4.2178016 2.3392162 41
13.346852 -3.3128021 2.3655403 66
13.4291 -0.88601357 2.339124 11
12.791675 4.176507 2.3392391 31
12.707833 3.8596554 2.3236003 31
12.555595 3.7654052 2.308198 31
13.180731 -2.4232779 2.3342335 86
13.199083 -4.4508767 2.3815422 39
13.066454 -1.9441897 2.3171358 27
12.930031 -5.5751657 2.3952622 34
12.606315 -0.70129889 2.264966 53
13.020033 2.5401103 2.3220258 41
12.978169 -3.5501218 2.3391678 31
13.122957 0.29477853 2.309509 24
12.960533 4.0840683 2.3510108 39
12.558209 -3.2967713 2.2971911 37
12.521019 3.7082119 2.303787 66
13.151199 -1.0494616 2.3155074 42
13.07401 -36.62307 4.5833898 21
4.9261532 -13.345106 2.4123113 13
14.057582 -29.4554 4.0353565 48
5.204051 -10.359532 2.1794574 20
14.37685 -27.8347 3.9204304 34
5.4075727 -10.145633 2.1707084 6
13.9839 -29.566456 4.0413437 35
4.8789034 -13.359178 2.4120631 32
5.3862844 -10.191851 2.173465 59
4.4129963 -12.128682 2.2962606 50
13.007327 -35.647549 4.5008159 5
3.8067584 -10.447054 2.1389165 34
13.531627 -28.864391 3.9682801 35
13.426671 -28.90123 3.9672444 17
14.477332 -27.086611 3.8663619 4
15.381227 -17.108482 3.1875863 17
14.874568 -13.036055 2.9018815 5
13.111571 -24.050106 3.5734026 27
13.243693 -31.982841 4.2086163 38
15.140865 -17.682383 3.2116241 15
1.4808738 -45.913979 5.19098 8
1.1674719 -45.872959 5.1863031 8
0.47748756 -18.723866 2.8087931 12
-3.3783135 -11.2698 2.2024295 13
-8.9038496 -46.404076 5.2958283 17
0.52435511 -45.278534 5.1326389 7
-9.1219769 -46.648869 5.3202434 35
-9.31213 -46.748287 5.3317995 35
-4.9601002 -27.084908 3.5766358 14
-11.071003 -35.868481 4.4455767 30
0.36672214 -45.836815 5.18121 8
-3.4132209 -11.243548 2.201154 38
-4.9286757 -46.268547 5.236701 33
-3.1556647 -29.752165 3.7859094 20
0.22573821 -44.577526 5.0707979 7
0.74031329 -18.937178 2.8282104 5
0.93882501 -17.073883 2.6660252 3
-3.4505358 -11.224746 2.200572 63
-3.2423778 -29.641541 3.7770553 20
-8.976676 -28.605524 3.7877262 20
-21.01552 -10.098954 3.2026243 54
-16.231947 -8.9963484 2.7931602 16
-31.311666 -11.760491 4.0737357 41
-46.980579 -21.200783 5.6315508 53
-52.023212 -20.916624 6.0201855 64
-33.851406 -13.250395 4.32375 85
-46.986889 -21.01549 5.6254363 63
-38.461601 -16.424891 4.7947125 12
-46.979702 -20.814899 5.6177735 53
-4.6946378 -9.0936995 2.071327 24
-34.71648 -10.467142 4.3150134 60
-38.511169 -16.302181 4.7944579 25
-23.545477 -11.706462 3.459106 78
-46.971703 -20.61462 5.6101127 73
-6.0112829 -4.6851521 1.850059 22
-36.539379 -13.835307 4.5574765 43
-29.915472 -17.104057 4.1626711 19
-15.828835 -11.84831 2.8979158 16
-31.97802 -17.11232 4.3180561 20
-30.248846 -17.018923 4.1839347 23
-40.213188 10.725885 6.2548485 10
-39.974556 20.127548 6.6372128 23
-40.098347 16.975748 6.4893775 22
-40.057125 17.124495 6.4918766 22
-39.978851 17.257542 6.4895597 22
-39.947529 17.410721 6.4935055 11
-21.166155 8.9386339 3.9943814 13
-20.233505 27.234583 5.3270164 79
-25.376131 12.503272 4.6389675 34
-25.218254 12.536946 4.6236157 23
-21.454182 8.8805342 4.02391 14
-20.192902 24.256214 5.0383105 49
-25.062235 12.570552 4.6085038 4
-25.222412 17.265886 4.9157543 5
-21.106874 19.05047 4.6569934 4
-14.466317 23.620283 4.5683694 18
-21.278839 8.7212276 3.9968903 27
-20.705078 5.4907393 3.806035 15
-19.664375 5.5898304 3.6875041 26
-19.872257 19.506851 4.5858006 4
-14.172012 38.304962 6.1752572 10
0.19919544 5.3561325 1.8275313 7
0.25391918 5.3869896 1.8312727 165
-14.130871 37.817223 6.1175656 20
0.27270037 5.389214 1.8315459 167
-17.866404 39.550266 6.4858027 11
-10.511376 23.351608 4.3135409 20
0.63032192 5.387239 1.8328388 159
0.29158908 5.3794618 1.8303571 140
14.629264 11.792132 3.4679995 4
-17.525646 39.169159 6.4263864 22
14.693373 11.761004 3.4717569 9
-17.454193 39.375969 6.4459934 11
16.485456 13.046009 3.7448514 5
14.778995 11.74711 3.47896 9
-16.861034 42.684982 6.7919912 12
-10.875393 23.711636 4.3719468 25
0.31041732 5.36766 1.8289244 68
16.59129 13.037957 3.7545238 2
-17.269609 39.332687 6.4321475 11
27.060698 -13.922438 4.9131923 21
18.338373 -5.6091356 3.5143991 2
17.804995 -4.5194211 3.4138496 9
20.311872 -0.87241596 3.6573069 17
12.845503 1.7811774 2.7417431 23
19.822983 -0.78289688 3.5960898 19
16.23403 -5.9431705 3.2797928 10
19.643637 0.57329237 3.5728693 9
16.175999 -4.9962525 3.2350781 22
13.475123 -0.61755258 2.806397 29
12.683709 -0.66682553 2.7083907 21
15.260394 -1.437583 3.0351634 14
14.963655 -2.4461482 3.0147314 23
13.455049 -0.66252875 2.8041728 42
20.004322 -0.44643906 3.6173294 19
13.403168 -7.8240581 3.061383 36
14.961026 -1.4603119 2.9983766 14
12.684315 -6.5964079 2.9091108 59
12.621862 -0.70652765 2.7009821 40
12.744681 -6.1895437 2.8928666 20
14.732843 -42.373055 6.6888247 46
4.8773413 -13.526991 2.9296541 10
27.280348 -19.084229 5.267796 27
27.617954 -19.180651 5.3090324 61
5.1946344 -10.350226 2.5820277 24
4.8401008 -13.572923 2.9334965 10
15.273457 -32.098377 5.5416956 39
14.623133 -28.350891 5.0916295 24
5.4008021 -10.142192 2.5704041 38
13.059464 -8.7486706 3.0866985 8
4.8150721 -13.664804 2.9432085 10
15.160494 -32.148544 5.541275 7
14.508901 -40.800228 6.496861 22
5.3644891 -10.158047 2.5701036 54
15.418624 -33.026009 5.652843 66
14.938117 -41.566982 6.6038213 34
21.766329 -13.657611 4.3250175 16
4.7636695 -13.669048 2.9416654 19
24.864132 -15.995279 4.8052216 35
13.160225 -9.2875376 3.1351283 28
-3.2014332 -10.718181 2.5503261 15
-3.2548535 -11.399637 2.6319089 4
-4.676497 -10.554725 2.5967541 9
-4.717597 -10.546134 2.5979083 45
-11.706908 -36.087063 5.8226047 45
0.27855632 -19.370415 3.548718 16
0.054059055 -44.264637 6.6056085 22
-10.183814 -33.826786 5.503459 7
-11.851846 -36.101276 5.8296905 45
-0.10030655 -44.249531 6.6036596 22
-11.726794 -56.394043 8.2328386 18
-11.926949 -56.367157 8.2344732 37
-12.000771 -36.105247 5.8357935 45
-10.118511 -34.463562 5.5759645 32
0.4067696 -19.302835 3.5406311 9
-0.25500512 -44.26564 6.6056104 45
-8.5382366 -34.852234 5.5723605 8
-11.783326 -48.305862 7.2666464 26
-8.6340265 -34.72113 5.5595331 32
-14.191985 -35.538738 5.8615894 74
-16.234652 -9.0647383 3.4626141 28
-47.05138 -29.452984 7.9455032 69
-47.072269 -30.146994 7.9930139 35
-47.060959 -29.230118 7.9320779 51
-47.364231 -29.187859 7.9606056 34
-20.83923 -10.187281 4.021368 38
-22.941031 -14.13091 4.4763775 49
-51.333794 -23.345119 8.0495539 18
-18.206387 -12.249478 3.8690648 31
-18.220808 -12.166196 3.8648968 56
-23.504572 -11.675349 4.3913522 46
-20.551283 -13.590354 4.1964073 23
-31.254028 -11.838831 5.2617655 71
-6.0496044 -4.6753631 2.1313729 5
-52.046524 -20.903454 8.0115795 71
-23.170259 -17.090807 4.7010498 25
-21.154484 -17.155098 4.5121503 22
-33.858395 -13.10153 5.6116104 8
-5.8251314 -4.8814101 2.1251485 19
-38.472111 -16.26885 6.2749557 43
-43.376106 18.368834 8.6085939 51
-43.373558 18.547495 8.6192322 38
-20.376884 8.6184521 4.6893058 12
-43.295837 18.694454 8.6171618 25
-43.166847 18.819138 8.606411 38
-40.740139 20.347673 8.3633366 11
-26.276806 13.408823 5.8463192 10
-20.257105 30.238754 6.9304457 14
-20.148113 30.305492 6.9296765 14
-40.301243 20.307167 8.2989502 11
-26.243931 13.508765 5.8488722 20
-20.214546 27.22673 6.5388622 76
-26.147387 13.576183 5.8402619 5
-13.815038 21.252859 5.1905556 16
-23.240852 7.5759225 5.0537024 7
-25.870661 15.430801 5.9439049 5
-16.982391 19.764893 5.3035641 20
-16.389891 18.954699 5.1461992 19
-25.552837 16.735054 6.0100799 26
-13.521166 21.129671 5.1490951 38
-15.267509 42.576736 8.3259163 11
0.23775165 5.380125 2.021996 161
-22.518665 47.946644 9.5446215 16
0.25547978 5.3883071 2.0232751 166
-20.199114 33.293686 7.3315725 15
-21.781641 46.820278 9.3346138 30
0.27422446 5.3944664 2.0242429 158
-21.697474 47.045395 9.3613358 30
-15.323341 41.823006 8.2169647 44
-10.944451 23.232513 5.2416406 20
-10.915122 22.776184 5.1747417 58
0.63054848 5.3627448 2.0210488 158
16.596004 12.210048 4.416904 2
0.29302454 5.3985839 2.0248981 146
16.600519 12.124865 4.4094038 5
-10.87513 22.301741 5.1047316 48
16.574476 12.017471 4.3959117 12
-15.741646 42.06617 8.2757483 11
0.31194672 5.378933 2.0217996 146
17.34576 12.405281 4.5319614 5
27.881483 -12.33207 5.9950976 26
27.312628 -20.277811 6.5594096 43
27.259809 -20.370846 6.5615187 37
14.322591 -6.9829416 3.6690993 22
27.090235 -13.472857 5.9582114 41
26.900415 -13.493752 5.9325714 41
26.861937 -13.590944 5.9340777 20
16.300819 -12.714465 4.4288416 5
16.270203 -12.78127 4.4316111 15
20.744846 -1.1807458 4.441215 31
20.566919 -1.2448931 4.4134045 23
20.593084 0.09909904 4.411541 13
16.271587 -12.874068 4.4410009 21
17.529364 -4.9712143 4.0329547 9
16.241066 -12.936834 4.4434576 26
14.77322 -0.98716742 3.4857166 3
14.797437 -6.2969828 3.6920447 16
16.715624 -14.81294 4.6948495 42
14.477619 -6.5135221 3.6593215 39
14.816962 -1.0409744 3.4932952 17
28.489794 -37.218185 8.6077719 12
0.32961643 -45.601421 8.3935204 23
0.14062779 -18.865831 4.1583009 19
0.1864655 -45.569618 8.3882895 23
14.609583 -28.107401 6.1867051 5
5.3956637 -10.14202 2.973716 60
-0.29094732 -45.581505 8.3900433 23
0.39940625 -19.435541 4.2488256 14
5.3479638 -10.134857 2.9692609 61
12.843345 -24.418583 5.5362163 4
0.45508769 -17.675161 3.9701099 27
0.5787276 -17.691628 3.9731205 21
5.3012509 -10.129256 2.9651201 57
5.2589517 -10.132338 2.9625509 55
0.53389913 -19.320004 4.2308879 9
7.072783 -17.442297 4.1428766 2
4.5092826 -13.714418 3.4476461 42
4.4665003 -13.745951 3.4503953 14
5.2106986 -10.122787 2.9577816 60
5.1808672 -10.331651 2.9855845 27
-10.06041 -19.544991 4.659781 81
-9.7883768 -24.251556 5.3163924 49
-11.701431 -17.090448 4.4616103 55
-11.800859 -48.293194 9.0381222 56
-11.781591 -17.077358 4.4671159 35
-12.769137 -20.517149 5.0050225 32
-7.0269122 -28.046713 5.7513146 24
-21.56753 -31.56739 7.2206264 85
-10.414778 -14.397479 3.9986517 31
-11.600472 -57.604424 10.46938 38
-20.004105 -31.578733 7.0869842 60
-19.081369 -31.591934 7.0124063 79
-22.616068 -29.435556 7.0452933 36
-7.0790396 -27.849062 5.7230706 24
-8.3537178 -34.069824 6.7255073 13
-20.163681 -31.583818 7.1011252 82
-15.477445 -20.425846 5.2360449 88
-11.562692 -56.429741 10.286075 18
-14.620664 -21.394369 5.2805867 61
-6.590076 -52.415314 9.5338402 31
-16.223642 -9.0506172 4.1320877 38
-14.873774 -15.708443 4.6086545 69
-17.081785 -16.776203 4.9722047 47
-36.835697 -26.808437 8.3691864 11
-5.8002172 -4.8927546 2.4028733 24
-35.388664 -28.70142 8.3708715 11
-6.0523171 -4.6735973 2.4131103 16
-13.689617 -12.095712 4.0807519 40
-36.893703 -26.653265 8.3622084 11
-5.8110633 -4.866415 2.4016042 52
-36.954311 -26.500307 8.3558531 11
-29.886967 -34.144535 8.343956 58
-43.356163 -10.413494 8.213438 22
-15.597712 -17.630459 4.9082246 7
-37.127304 -26.426975 8.3712234 11
-14.818709 -17.608717 4.8252854 27
-37.12672 -39.487522 9.7312231 33
-37.6026 -37.842812 9.5965338 16
-5.8240609 -4.8435779 2.4009576 54
-19.581707 -13.647031 4.9619575 29
-43.387192 10.468987 9.8371372 31
-43.38065 10.137329 9.8211269 31
-43.554756 17.735083 10.299247 17
-21.603991 8.784709 5.727385 20
-43.167835 18.82745 10.312425 35
-20.564713 8.284029 5.5053992 18
-43.18531 17.762705 10.235332 34
-24.928005 13.511912 6.6971025 24
-23.731308 12.980018 6.4452167 27
-20.130247 30.287434 8.2410698 19
-43.264652 17.97283 10.264969 35
-23.632374 13.034822 6.4335408 27
-20.954603 5.0189271 5.3865519 14
-17.037766 18.756983 6.1106267 24
-20.378475 5.112546 5.2828913 35
-20.462374 5.2064581 5.3029833 13
-23.616571 13.129301 6.4396696 22
-25.763115 15.736712 7.0506506 6
-20.25038 18.689056 6.5402465 22
-20.363964 18.407032 6.5198479 11
-18.038155 41.83897 10.021316 16
-20.144621 36.260357 9.2304602 63
0.12186291 5.4774251 2.2350347 1
0.14538553 5.3525496 2.2106504 22
0.16499949 5.3237319 2.2049575 58
0.1841884 5.3026919 2.2007904 46
0.44449905 5.4017129 2.220278 9
14.497586 6.5682545 4.2278838 4
14.529347 6.5228472 4.2298427 37
14.902592 6.5745735 4.3006458 3
0.20318267 5.2835464 2.1970046 16
14.948745 6.5340757 4.3056803 19
19.665888 -0.85441905 4.9631362 21
15.335572 -1.6116948 4.1274757 1
15.269385 -1.657357 4.1155429 3
19.721054 -0.5856753 4.9719944 31
19.558046 -0.64795351 4.9404469 10
14.921215 6.4607501 4.2949529 29
16.440676 4.5200682 4.4481182 2
15.316154 -1.7155324 4.1259212 14
28.477243 -37.218513 10.286797 17
28.553375 -36.517788 10.187681 16
5.456439 -10.092533 3.3786654 32
5.4105906 -10.089325 3.3740139 53
14.487044 -14.515532 5.134263 8
5.3639517 -10.084164 3.3689795 47
14.40761 -14.535262 5.1261244 5
15.499752 -14.708916 5.3018618 84
5.3226309 -10.089357 3.3662436 42
15.351573 -14.267996 5.2214794 34
5.2813315 -10.094388 3.3635075 43
16.45639 -13.981941 5.344945 10
5.1720252 -10.318841 3.3934882 19
15.125317 -7.4519534 4.4138613 22
6.4507165 -16.526203 4.6057358 8
16.389229 -14.017287 5.339498 19
6.2501864 -16.697052 4.6233606 15
16.270922 -14.012355 5.3213758 16
6.4636621 -18.077471 4.8908577 25
16.237085 -14.086322 5.3259034 22
-0.36040688 -49.814728 10.853886 19
0.13396631 -19.085707 4.8801746 10
-0.53152227 -49.160206 10.726906 19
0.26839212 -18.744987 4.8139768 27
-7.099649 -29.553501 7.0820355 13
-0.67779905 -47.955696 10.493101 18
0.32716417 -19.118095 4.8865843 10
-11.628048 -48.270885 10.818223 78
-7.1852856 -29.458921 7.0681605 27
-5.1368356 -44.954369 9.9647465 15
-0.83215958 -48.105423 10.522629 18
-5.0352507 -45.373856 10.043528 16
-7.2565732 -29.310886 7.0436225 26
-12.049012 -52.31004 11.599962 43
-11.557852 -49.464146 11.04046 40
-0.99920207 -48.069714 10.51626 18
-4.8878531 -55.777061 12.05205 22
-7.3099594 -29.098148 7.0061359 26
0.45731798 -18.620941 4.7902293 42
-11.60792 -57.573708 12.581142 48
-14.827833 -15.763945 5.3969827 59
-12.659746 -20.652195 5.8920121 8
-17.018162 -16.824841 5.8400578 100
-10.965466 -19.269192 5.4939451 18
-17.330378 -31.597967 8.1784296 74
-11.51726 -17.323381 5.2308664 34
-10.567403 -19.036833 5.4167156 28
-17.620684 -31.610254 8.2077389 46
-11.314683 -16.781019 5.1220307 18
-20.92798 -31.314476 8.4933329 10
-10.342083 -14.39807 4.6369452 33
-10.333453 -18.925798 5.375865 31
-14.168121 -31.620747 7.9090123 34
-17.904736 -31.594761 8.2320976 84
-22.597166 -29.398006 8.3803854 48
-15.474381 -20.412624 6.163116 60
-11.536723 -16.848625 5.1571736 27
-9.6036425 -22.911619 6.0086718 9
-26.853704 -25.815302 8.4136963 9
-26.19713 -26.639151 8.4353523 9
-29.926144 -21.815254 8.3721542 9
-30.01169 -21.716393 8.3743076 9
-5.7915788 -4.8488889 2.67856 43
-28.727423 -23.506525 8.3885727 9
-13.703374 -12.102389 4.7499213 28
-30.029678 -21.569437 8.3605375 9
-6.0334058 -4.6577172 2.6930594 28
-17.918175 -12.680113 5.4603753 32
-17.998331 -12.65062 5.4697895 36
-5.7952757 -4.81885 2.6755006 45
-30.082319 -21.447515 8.3551102 9
-30.579481 -20.398674 8.3191986 48
-5.802772 -4.7901864 2.6731985 43
-43.33691 -10.400217 9.8250523 31
-43.363392 -10.245522 9.8231001 62
-15.369996 -10.050369 4.7686324 2
-18.257099 -12.174414 5.4594512 43
-5.8132472 -4.7639356 2.6716552 45
-28.168369 -24.229591 8.3955717 9
-28.3218 -24.188263 8.4128838 9
-20.182425 33.298466 10.164845 46
-43.535866 17.744198 12.022132 14
-20.138521 30.319395 9.5814514 8
-20.495604 8.2645483 6.3087521 16
-43.222912 9.6527481 11.397424 25
-21.350956 4.884985 6.2656379 29
-19.144842 7.6461029 5.9685102 11
-43.177708 17.776251 11.94891 28
-43.821815 9.6158915 11.529656 13
-25.038002 13.467584 7.7591968 10
-43.178692 18.849043 12.045165 29
-21.441923 4.9773817 6.2906876 13
-25.026924 13.575348 7.7686601 25
-43.889538 9.1468306 11.522361 13
-20.981976 4.950573 6.186583 12
-24.977671 13.662827 7.7682858 30
-17.66086 19.171619 7.2100859 21
-20.72843 4.973084 6.1311932 21
-20.200661 27.23288 9.0095911 79
-43.195351 6.9931345 11.276049 24
-0.026157025 5.4350305 2.4268022 5
0.030912753 5.4189625 2.4223933 0
0.049830314 5.4199772 2.4224229 0
17.708731 6.2102165 5.4586372 9
0.59881359 5.0733347 2.3432095 12
0.069696091 5.4209714 2.4224541 0
14.863537 5.0763183 4.747395 1
14.906944 5.0344548 4.7537632 20
0.093009122 5.3245106 2.3999975 0
14.850687 4.9583502 4.7356801 28
18.085924 2.1366355 5.3274922 2
18.345028 3.5188994 5.4367471 11
18.204538 3.7513218 5.4153762 20
15.59194 4.1617069 4.8466368 9
15.525427 -2.6660752 4.7562423 15
17.523594 1.5197389 5.1826525 29
15.67109 2.835566 4.7963991 26
15.577275 3.3669558 4.7993903 22
16.891287 -0.62178093 5.0228882 4
15.431956 -1.7876596 4.7052383 7
5.4549637 -10.09962 3.7930856 10
14.869796 -7.3300533 4.952816 20
6.3416171 -17.741079 5.5047154 9
5.4660664 -10.209711 3.8169501 4
5.1675649 -10.320096 3.8092852 6
6.2536659 -17.684366 5.4856801 9
5.4217029 -10.210144 3.8123815 8
6.2182255 -17.784491 5.504972 23
18.322927 -4.5370593 5.4832177 24
5.3480554 -10.150999 3.7924688 30
16.091717 -7.6720376 5.2426796 29
2.9557631 -14.951363 4.6791682 26
6.1124377 -17.681881 5.4746609 11
14.237922 -6.3510351 4.722353 18
14.923128 -3.842634 4.6774874 3
16.57732 -7.0154166 5.2821202 19
14.883279 -3.8865175 4.6711273 31
14.349599 -5.9375277 4.7076735 20
18.399687 -4.2889509 5.4869328 9
15.988399 -4.9529634 4.986917 30
0.38636553 -19.200752 5.6033692 2
-0.74483436 -43.765358 11.276271 12
-11.590322 -56.383331 14.456508 22
-11.781735 -56.364506 14.461155 45
-0.89957017 -43.831512 11.292226 12
-7.3981514 -28.182846 7.9047294 21
-11.98632 -56.358124 14.469382 45
-11.613055 -45.406036 11.99078 57
-1.3524853 -43.660583 11.25552 12
0.84099811 -18.78261 5.5091457 26
-12.00631 -48.267612 12.652477 48
-7.5706244 -28.422358 7.9683495 21
-8.8010063 -34.231632 9.3351402 15
-11.56907 -53.508545 13.806821 40
-7.6870241 -28.474815 7.9870639 22
-8.880228 -34.050964 9.2994699 15
-10.728269 -23.454439 7.1390662 4
-10.746196 -23.685007 7.1889825 13
-11.760077 -53.485752 13.81102 20
-8.7733297 -27.519232 7.8476682 10
-24.38867 -19.981216 8.4681511 6
-24.157036 -20.221506 8.4622211 12
-25.939514 -18.2381 8.5106707 6
-5.7633386 -4.8922734 2.9646366 5
-16.349575 -27.108866 8.4917202 6
-5.8034596 -4.8544521 2.9663725 36
-19.714607 -24.61039 8.4656878 6
-10.518698 -13.416863 5.1362228 8
-6.0660224 -4.6436381 2.9848518 11
-14.881425 -15.697289 6.1920886 28
-14.962013 -15.659702 6.19871 15
-16.985041 -16.903118 6.728693 34
-17.045479 -16.838205 6.7281466 69
-13.687997 -12.165181 5.4326553 29
-22.653622 -20.36265 8.2220869 58
-17.438473 -12.801956 6.1974616 28
-5.8179903 -4.832881 2.9658992 32
-19.731161 -24.455912 8.440465 6
-9.3021975 -15.535283 5.3748255 2
-13.807314 -11.926849 5.4176159 15
-30.259325 -17.676308 9.2768068 15
-16.233696 -9.1150684 5.5082278 42
-43.942825 -10.690904 11.612666 13
-43.586113 -9.7971516 11.486334 52
-43.388153 -10.395652 11.473161 26
-36.853897 -12.027795 10.131948 9
-43.557072 -6.1893177 11.330641 12
-36.913582 -5.3850822 9.7969904 17
-23.804159 -9.7971392 7.1443462 21
-30.271128 -12.180157 8.7241955 27
-43.559101 -6.0334749 11.326135 50
-19.329443 -11.452705 6.3910718 6
-23.83885 -12.652941 7.4291387 9
-25.612959 -14.393758 7.9775195 11
-34.011967 -8.9234962 9.3058262 15
-32.515541 -12.276666 9.2119665 7
-24.149656 -12.92468 7.5213361 9
-18.950077 -11.317517 6.3003345 16
-30.293795 -12.059377 8.7187576 33
-15.962927 -9.9505835 5.5514102 21
-20.113918 36.256618 12.288119 55
-20.169611 33.300018 11.613091 49
-0.064301468 5.470315 2.6388402 1
-0.024775688 5.4381776 2.6295853 33
-43.449638 17.726021 13.752488 13
-20.755224 7.4521136 7.1273632 14
-43.198536 18.874521 13.809799 13
-18.890356 16.531507 7.9308925 17
-20.155912 30.364882 10.950077 8
-43.384892 10.008672 13.113464 24
-21.303167 5.032845 7.0856586 17
0.015432532 5.3864713 2.6151557 2
-43.203243 17.803331 13.699556 40
-43.218166 9.8266716 13.059378 49
-21.329712 5.1227522 7.0980387 43
-19.843391 17.473944 8.2875814 19
-18.419062 16.349491 7.804297 17
-20.413328 7.1769376 7.0171313 38
0.035413411 5.3663211 2.6094933 2
-21.377474 5.2140999 7.1160793 29
27.398645 7.0684457 8.7108736 55
27.334044 6.9559784 8.6864452 40
27.324471 6.8530827 8.6771145 50
0.64971685 5.0398126 2.5235014 41
15.582681 4.0965772 5.4265957 24
15.638215 3.7723863 5.4194427 24
15.891435 3.719722 5.4824758 24
15.904321 3.6653776 5.4824972 33
15.457466 -2.3341897 5.2960863 10
15.915044 -2.1824374 5.4122357 9
17.398834 -0.64682382 5.7748103 12
15.939596 3.6162043 5.4887652 27
16.358545 0.064453445 5.4910493 2
17.933437 -3.3492513 6.000361 13
18.110437 -3.5117564 6.055512 26
15.502787 2.8484778 5.3312507 29
18.224905 -3.5993373 6.0903749 5
15.570083 -4.6516871 5.4645433 33
16.758074 -4.5786066 5.7666388 37
16.850201 2.1550138 5.661046 9
-11.612752 -56.376266 16.592527 48
1.1086111 -19.095631 6.2926111 8
-11.803706 -56.355309 16.597404 48
-12.008615 -56.35043 16.607435 48
-11.591826 -53.508331 15.840373 42
15.631639 -7.7213964 5.7877097 15
5.4703536 -10.052828 4.2038727 3
5.8088269 -18.501534 6.3496728 11
-11.630356 -45.396961 13.730249 53
5.7322893 -18.479774 6.3381639 11
5.4413433 -10.082775 4.2074513 19
5.1967225 -10.29936 4.2303653 22
5.6650767 -18.48926 6.3354707 2
5.4035134 -10.095386 4.2058392 21
-12.028708 -48.273613 14.502518 62
-11.523286 -52.339661 15.530908 19
-12.094841 -52.314377 15.557962 19
3.4290373 -18.062654 6.086072 39
1.9688627 -17.547409 5.8953476 10
1.9084588 -17.562658 5.8978415 7
-7.4029913 -28.155746 8.9815044 21
-11.648825 -44.212254 13.42479 51
-7.481009 -28.056026 8.9611921 32
-8.9145203 -14.67315 5.8021049 2
-8.9239426 -23.961809 8.0379629 18
-7.569283 -28.013264 8.9563942 21
-14.242064 -23.306351 8.5115194 4
-8.8535824 -27.403439 8.8994951 21
-11.90156 -36.077202 11.357812 37
-12.203879 -32.792015 10.556482 32
-9.0174799 -14.722362 5.8278255 10
-9.0131483 -23.943787 8.0419636 22
-12.038099 -36.044968 11.36122 46
-7.6107306 -27.788643 8.9014549 21
-9.2939978 -20.028612 7.1086564 7
-11.835776 -25.544636 8.7317171 20
-11.84882 -25.803576 8.7958889 20
-13.693508 -23.878077 8.5672626 5
-9.0718622 -23.848145 8.0237513 21
-11.856189 -26.030664 8.8517876 21
-17.160841 -21.154884 8.4965382 4
-17.028225 -12.496311 6.8727365 20
-6.0752087 -4.6465526 3.2802806 22
-21.348936 -12.31598 7.8152966 8
-17.348991 -20.932272 8.4827795 9
-14.837622 -14.795592 6.822907 35
-17.44095 -20.907572 8.4935045 4
-17.035574 -12.409826 6.8608174 37
-14.803753 -15.813386 7.010366 49
-13.624695 -11.272356 5.9540706 23
-5.7729545 -4.8961177 3.2569489 31
-19.911198 -18.801146 8.5392761 10
-13.12962 -12.415754 6.0547757 10
-17.22538 -12.453126 6.9086609 10
-11.143777 -13.683002 5.9362755 15
-5.7733779 -4.8615446 3.2512534 45
-13.152925 -12.350441 6.0474911 15
-10.936097 -13.724694 5.9096856 10
-5.76757 -4.8222361 3.2434974 46
-13.148776 -12.260413 6.0304136 13
-22.051271 -11.806134 7.9135699 21
-43.592056 -9.9427633 13.16376 12
-21.794941 -11.769811 7.8487492 21
-32.589245 -13.87331 10.687654 8
-32.679035 -13.789227 10.70097 8
-23.465965 -10.126728 8.0603933 9
-43.938591 -4.9869804 13.033187 12
-43.309689 1.7599982 12.800063 47
-43.347233 -6.2992864 12.921814 48
-37.6199 -5.6085811 11.386162 19
-43.519531 1.9217378 12.857707 48
-43.340115 -5.0662241 12.877284 48
-20.433329 -9.958168 7.3062944 15
-43.539291 -6.1708016 12.967581 48
-37.411911 -5.7057514 11.335244 46
-15.427109 -8.6635294 5.962575 28
-23.490427 -10.33408 8.0883121 18
-15.552462 -8.6639891 5.9918833 28
-30.410696 -12.715931 10.033132 14
