# .PCD v0.7 - Point Cloud Data file format
VERSION 0.7
FIELDS x y z intensity
SIZE 4 4 4 4
TYPE F F F F
COUNT 1 1 1 1
WIDTH 1411
HEIGHT 1
VIEWPOINT 0 0 0 1 0 0 0
POINTS 1411
DATA ascii
-2.1486564 3.6750319 -0.022471266 0
-1.4335539 2.5964589 0.32549188 1
-2.1024804 3.6339424 -0.0063511897 2
-2.091486 3.6436124 -0.0068516303 3
-2.0766244 3.6488369 -0.005793171 3
-2.3468683 2.1312659 0.2479742 51
-1.6776521 2.0855243 0.39034143 28
-2.0691657 3.665309 -0.008369999 3
-1.8443692 2.3055108 0.31657049 9
-1.8415923 2.3187366 0.314504 14
-1.8453305 2.3390381 0.30983898 3
-1.748441 2.4637713 0.30222395 1
-2.0687532 1.9654659 0.33434239 1
-1.9047365 2.0344715 0.35582176 9
-1.7689011 1.965292 0.39537701 54
-2.0559165 1.9689288 0.33643302 2
-1.7578099 1.9686494 0.39694729 60
-1.8130481 2.3189425 0.31972525 4
-1.655249 2.4032438 0.33084163 2
-2.4698367 1.8708966 0.26228032 59
1.7320939 2.8862164 0.31285748 12
1.7548934 2.9073555 0.30512825 3
1.8619163 2.6469877 0.3534421 7
2.359977 3.9353597 -0.012808161 0
2.5507715 3.8088357 -0.0073295403 12
2.5532935 3.7827477 -0.0016310978 10
1.538792 3.4795952 0.18520258 3
1.8428166 2.9063342 0.29491356 2
1.7080716 4.2013283 -0.012284474 2
2.5733716 3.7866216 -0.0052231122 10
1.7202991 4.1891727 -0.010194378 3
1.8314312 2.8599744 0.30731997 9
2.2120893 4.0165443 -0.015112596 0
2.5895455 3.7837634 -0.00675066 11
1.8255662 2.8259482 0.31611136 8
1.7969453 4.1773734 -0.013697343 2
1.8084527 4.1589823 -0.01005538 4
1.6497476 4.1652741 0.0016010237 3
2.6112435 3.7617176 -0.004645424 11
1.8255708 4.1610875 -0.012099104 4
4.7590575 2.7450275 -0.21814223 0
3.0943041 1.725924 0.30207953 7
4.7559218 2.7206931 -0.21400543 0
1.851355 2.4119906 0.40881768 3
2.5079424 2.0227365 0.37776318 16
4.7785878 2.7133005 -0.21811087 0
1.6263866 1.2113183 0.69733149 27
2.5079014 3.4804926 0.073879287 13
1.8724172 2.2009764 0.45285437 3
1.8483794 2.3887324 0.41450748 21
2.5068219 2.0068915 0.38086763 21
1.2913378 1.3505177 0.72786081 1
1.2769424 1.3204433 0.73663867 10
4.7776432 2.692544 -0.21500607 0
2.5052683 1.9914597 0.3839713 26
1.8681571 2.40134 0.40884432 7
1.2758996 1.3093028 0.73922545 23
2.5104308 1.9829483 0.38449726 20
4.4421058 2.3170562 -0.087151006 0
4.8689322 2.5985715 -0.22314294 0
4.9173522 -2.3216918 -0.19915457 0
3.0711594 -1.3987358 0.35076544 1
3.0679789 -1.4091654 0.35024306 10
3.0424645 -1.4080061 0.35641471 12
3.0152812 -1.4057877 0.36310121 12
4.618062 -1.8251584 -0.070742562 0
2.9642255 -1.3907551 0.37699696 21
5.0625744 -2.0536001 -0.20359071 1
5.0376768 -2.0623319 -0.19845326 1
5.019845 -2.0740428 -0.19537516 1
2.4872074 -1.359068 0.49116299 7
5.0231647 -2.0951114 -0.19847544 1
4.7380085 -1.6113105 -0.079358414 0
4.8121152 -1.65616 -0.10201748 0
4.8260436 -1.4505999 -0.087505773 0
5.0381503 -1.0280532 -0.11254556 0
2.4763463 -1.3832641 0.49011114 2
4.6678991 -1.7401004 -0.074289516 0
1.9100015 -1.9727489 0.49596319 1
2.5014944 -2.1521511 0.35506275 6
1.50187 -1.4727048 0.66820341 2
2.0451102 -1.7230897 0.52205223 1
2.0119395 -1.7015417 0.53235239 1
1.4799776 -1.4555248 0.67541558 4
2.0141039 -1.7156705 0.52925038 1
1.4725096 -1.4564723 0.67643917 5
1.9722488 -1.6970705 0.54057223 3
1.4674183 -1.4604386 0.67643124 4
1.4623131 -1.4643872 0.67642331 6
2.0479741 -1.8118064 0.50445884 1
-2.1862302 -2.3954177 0.23434339 3
-0.39123917 -1.4172169 0.74235743 3
-2.1678965 -2.3614123 0.24420653 7
-2.1648536 -2.3420956 0.24835198 13
-2.1659465 -2.326777 0.25093815 15
-2.1740534 -2.3180346 0.25092527 20
-2.2530065 -2.1819293 0.25908074 18
-2.1604183 -1.7821066 0.34462824 28
-2.3971663 -1.3666352 0.34735379 59
-2.0193512 -1.6571996 0.39505818 11
-2.0156257 -1.6423337 0.39816961 19
-2.1506376 -2.0514061 0.30272046 15
-2.1458368 -2.0329225 0.3068687 20
-2.394002 -1.2710716 0.3592625 31
-2.0229306 -1.6352226 0.39764038 21
-2.1469281 -2.0193748 0.30893728 24
-1.8514802 2.7185054 0.36118779 1
-2.4628797 3.5043559 0.1303113 34
-1.9321103 2.1044261 0.45240399 2
-2.4645536 3.5304105 0.1253591 36
-2.4678736 3.5600657 0.11950462 37
-2.4643636 2.5270584 0.29499337 32
-2.4722199 3.5913227 0.11319844 35
-2.137156 2.2614081 0.39269164 12
-2.1106255 2.2528546 0.39858219 9
-2.1536586 2.37499 0.37196788 10
-2.4668298 3.6103363 0.11050718 36
-2.3387487 2.2983408 0.35188308 56
-2.0039012 2.2944138 0.40999654 29
-2.4440906 2.4058819 0.31707302 54
-2.3567631 1.8646786 0.40990117 45
2.7055256 4.5637002 -0.013661223 11
1.8917342 4.8666067 -0.0072971154 8
2.0630822 4.8187799 -0.0092764664 6
2.0695748 4.7895079 -0.0034170914 1
0.66165119 5.1088753 -0.011483269 9
0.67869139 5.0960369 -0.0087568332 8
1.5089666 3.426964 0.33540717 7
0.71716255 4.1722622 0.20322673 27
1.8553793 2.5119786 0.49433568 9
1.5228792 3.4304154 0.3336294 3
1.3107928 5.0254302 -0.010462122 12
0.76563537 5.0874696 -0.0081702042 8
1.7384237 4.9109893 -0.0070888568 9
1.5393615 3.4391196 0.33050576 2
1.1958467 4.2713971 0.1652848 2
1.5878822 3.3510718 0.34588042 25
0.67862219 4.2303667 0.19056772 7
0.89477962 4.3074455 0.16796069 2
1.493898 3.8066473 0.2530435 1
0.97613859 5.0691705 -0.008739071 8
5.3140774 3.3798196 -0.21154661 0
2.502738 3.1467171 0.29108348 5
5.4273205 3.2066669 -0.21136518 0
3.0534627 1.7377111 0.42919758 23
5.4285636 3.1826754 -0.20866354 0
5.4429555 3.1669314 -0.2095402 0
2.5036898 3.4194508 0.2384408 2
1.8354979 2.4396224 0.51095241 2
2.5089762 1.9936229 0.49222347 16
1.2944516 1.3540419 0.78816491 6
5.4545283 3.1481905 -0.20952173 1
1.6381274 1.2041578 0.76216346 11
1.2764921 1.3189735 0.79713553 12
1.829448 2.3213592 0.53479022 15
2.5054843 1.9772153 0.49536762 15
1.2537419 1.2777218 0.80789828 28
1.8820223 2.21329 0.54882199 24
2.50225 1.9604748 0.49851224 16
1.8464429 2.3289373 0.53121752 18
1.8054463 2.2486348 0.55185032 33
5.6917977 -2.7164226 -0.20812888 0
3.0926881 -1.4110373 0.45901754 1
3.0513623 -1.4018955 0.46840039 10
3.0326171 -1.4041752 0.47197023 10
3.0173411 -1.4081535 0.47464576 13
2.9951794 -1.4083934 0.47910997 16
2.4707978 -1.3498507 0.58986115 7
2.4778235 -1.3642524 0.58672321 3
6.4185576 -0.086035475 -0.22503777 0
6.2444949 -0.99421161 -0.20414694 1
6.417809 -0.12850323 -0.22503801 0
2.4886971 -2.4960308 0.41220126 10
1.9957186 -1.9532988 0.58057934 1
1.9022645 -1.9646567 0.5921303 1
1.4908698 -1.460026 0.74174136 1
1.9673433 -1.9466517 0.58593351 1
1.4761201 -1.4518051 0.74531722 2
1.9580436 -1.9493461 0.58681875 1
1.4698445 -1.4542485 0.74575734 2
1.4552008 -1.4458871 0.74933338 2
1.4501464 -1.4497936 0.74932557 2
-2.1785436 -2.4530315 0.35538164 6
-0.39491546 -1.4484773 0.79456764 6
-2.1661134 -2.4238989 0.36214915 12
-2.1577203 -2.3989382 0.36756065 21
-2.1600311 -2.3852737 0.36935636 29
-2.1584554 -2.3671589 0.37250778 36
-2.2436385 -2.1877539 0.38541743 15
-2.1482706 -1.7851015 0.46024278 32
-2.0141625 -1.6644851 0.50184196 13
-2.3933229 -1.3515502 0.46299842 73
-2.1348581 -2.0659084 0.42292777 19
-2.1375597 -2.0535414 0.42427292 25
-2.0103996 -1.64955 0.504547 19
-2.3718832 -1.2704643 0.47562769 58
-2.3831456 -1.2647732 0.47381029 31
-2.000174 -1.6301981 0.50906169 23
-1.891747 2.6914921 0.48755166 4
-2.4613905 3.4047813 0.30918983 34
-2.4631281 3.4312572 0.30498877 47
-2.46348 3.4562604 0.30117151 43
-2.4679849 3.0720756 0.35727027 45
-2.4243097 3.0454624 0.36687985 25
-1.2627215 4.8212185 0.18014799 42
-2.115768 2.7237296 0.45399842 20
-1.4116848 5.2102447 0.099003002 69
-2.4612334 3.4782472 0.29812166 43
-1.2518438 4.8392711 0.17749338 42
-2.103631 2.7293363 0.45478061 35
-1.6985624 5.4354863 0.038633749 17
-1.2349416 4.8447795 0.17751984 39
-1.5771751 5.218771 0.086531088 60
-2.469882 3.5140727 0.29161975 45
-2.0857999 2.7294385 0.45709834 55
-2.4738302 2.4495339 0.44122991 56
-1.556272 5.21803 0.088090345 69
-2.4671662 2.4601274 0.44085857 55
2.7026932 3.9089739 0.28523323 9
0.3064093 5.2084169 0.15741746 16
1.7543226 4.9643116 0.16847353 17
0.67401034 4.167892 0.35760245 44
0.72178376 5.1980186 0.1573066 83
0.32625461 4.1777811 0.35781941 19
0.54172075 5.2024083 0.1581686 84
0.4757874 4.2873602 0.33629975 8
0.34082961 4.1738572 0.35860559 13
0.68999553 4.192174 0.35266599 18
1.5215616 4.0444241 0.35244849 1
0.55854559 5.1918855 0.16010348 85
0.35526225 4.1482868 0.36358979 26
0.98373884 4.2839417 0.32870194 3
0.705495 4.2006841 0.35078213 27
0.57685167 5.1949944 0.15936892 85
1.5295097 4.0195556 0.35665926 3
1.8518487 2.5851793 0.58960062 20
1.1572095 5.0735197 0.17211293 20
1.4978274 3.8178966 0.39592043 1
6.3592157 3.8480656 -0.21008833 2
3.0398326 1.7558459 0.54721552 17
6.3828855 3.8364816 -0.21272238 3
6.3696461 3.7986152 -0.2066365 3
6.3862009 3.7796061 -0.20737322 2
2.5145814 1.9849538 0.60019416 19
1.6420467 1.1990185 0.82704794 12
1.8544037 2.2731075 0.64074796 25
1.2765299 1.3886456 0.84516937 7
2.5156684 1.9720633 0.60172272 21
1.2791526 1.3821051 0.84593689 47
6.4143815 3.7677708 -0.21076329 2
2.5049987 1.9487001 0.60628581 21
1.2783974 1.3707134 0.847844 71
2.5117881 1.9411093 0.6062966 21
1.2798148 1.3625692 0.84899127 79
1.8444793 2.3803465 0.62432057 30
2.515609 1.9308928 0.60706604 24
2.4933589 1.7568549 0.63222146 3
1.2800608 1.3528236 0.85051829 82
6.7169366 -3.2376773 -0.21090741 2
3.0711863 -1.4128108 0.57556969 9
3.036623 -1.4069467 0.58200282 10
3.0090902 -1.4045076 0.58692062 10
2.9642515 -1.3927084 0.59562719 23
2.9457579 -1.3940274 0.59865111 30
2.4763758 -1.3539842 0.68072438 7
2.4851282 -1.3695158 0.67768544 1
7.4730396 -1.0247921 -0.22045095 1
7.4913611 -0.74964523 -0.21737488 1
2.4803343 -1.3770179 0.67767811 1
2.4755144 -1.3845026 0.67767066 1
7.3768644 -1.4403557 -0.21601398 1
2.5038006 -2.6613436 0.50601304 1
1.4982964 -1.4491571 0.81046706 3
1.4907802 -1.4501452 0.8112185 7
1.4796126 -1.4464817 0.81310898 6
1.4721272 -1.4473875 0.81386054 6
1.4634418 -1.4467102 0.81499171 4
-2.1416669 -2.3991561 0.49604109 6
-0.39363056 -1.4451059 0.85443497 9
-2.1585104 -2.3986676 0.49372485 12
-2.1579397 -2.3822489 0.49601522 20
-2.1377747 -2.3465018 0.5036785 17
-2.1373827 -2.3297791 0.50596845 19
-2.1988714 -2.1794159 0.51655418 21
-2.2553949 -1.4435685 0.58972096 8
-2.1752186 -1.6620358 0.58107412 2
-2.1137598 -2.0765846 0.54225409 9
-2.3952425 -1.3281715 0.57576072 54
-2.1134892 -2.0617032 0.54416233 10
-2.3817649 -1.2744443 0.58264989 58
-2.2758756 -1.4430714 0.58625424 11
-2.3476865 -1.4342701 0.57469279 7
-1.3313725 5.2099957 0.30094394 38
-1.1819649 4.9194517 0.35218224 1
-1.5725288 5.2108593 0.28805044 47
-1.5516399 5.2100539 0.28933468 54
-2.2793236 5.2104836 0.24251299 50
-2.4667113 2.4448624 0.57673299 66
-2.4630523 5.2107906 0.22877114 96
-1.5332644 5.2103753 0.29030225 59
-2.4476278 5.2257557 0.22785644 96
-2.278702 5.25495 0.23625575 28
-2.2837629 5.4064784 0.21434383 92
-2.4585884 2.4541364 0.57674557 64
-2.2553864 5.4420114 0.21125899 94
-2.4229188 5.223206 0.23008536 91
-2.4603555 2.4730334 0.5745523 63
-2.4563859 1.8650615 0.63401616 90
-1.5163845 5.2205868 0.28970274 56
1.2015657 4.290606 0.47795728 3
0.8937369 4.2857223 0.48623428 1
0.35675579 4.1976004 0.50510371 19
0.34427506 5.1991653 0.34643868 15
0.50791067 5.2061577 0.34513119 61
0.57989186 4.2893929 0.48980865 7
0.94608265 5.0854659 0.359588 3
0.61364675 5.1916647 0.34686181 36
0.37039194 4.1658983 0.5101316 17
2.19416 3.1156559 0.59811771 13
0.46174148 4.2767467 0.49243924 15
0.99526155 5.2027931 0.34026489 3
0.59534383 4.2963953 0.48858133 5
1.5225664 4.3175855 0.46250448 19
1.6608106 4.9576058 0.35914871 1
1.8285552 2.4848676 0.7130053 1
1.8218502 2.4542978 0.71768844 4
0.61083502 4.2914662 0.4892315 5
0.80504173 4.3003483 0.48546895 5
0.82258117 4.3142962 0.48299322 3
7.8047147 4.8045244 -0.22502585 1
3.063611 1.7700386 0.65895593 10
7.8214397 4.7784243 -0.22499903 1
7.8364134 4.7548828 -0.22497495 1
7.8529673 4.7286677 -0.22494848 1
7.8694286 4.702395 -0.22492214 1
2.5076742 1.9636154 0.70938951 17
1.2310866 1.4025692 0.90763265 5
1.6895237 1.2334905 0.88176215 15
2.5101027 1.9520575 0.71033216 17
1.2209811 1.3761864 0.9119975 35
1.7358202 2.207757 0.75791854 9
2.5154278 1.9431355 0.71065354 19
1.220633 1.3646433 0.91356152 68
2.4970341 1.9132606 0.71594405 17
1.2232251 1.3582333 0.91419148 81
2.5096383 1.9109116 0.71471244 21
1.2233704 1.34868 0.91544336 81
2.5286872 1.7717568 0.72663426 1
3.0316017 1.884793 0.65295881 15
8.2681007 -3.9933312 -0.22411723 1
3.0870938 -1.4101717 0.68440062 1
3.0540662 -1.4052689 0.68935454 11
3.0368781 -1.4083662 0.69151771 11
3.02145 -1.4122808 0.69337076 11
2.9658728 -1.3948286 0.7023564 24
2.46561 -1.3483144 0.77384257 7
2.4794588 -1.3670516 0.77042317 3
2.4779997 -1.3766676 0.76979536 8
9.2660341 0.18080686 -0.23077054 1
9.1370459 -0.95621163 -0.218435 1
9.1772366 -1.2411209 -0.23025484 1
8.5267363 -3.4316616 -0.22372265 1
8.7654276 -2.6661625 -0.21710606 1
9.1517067 0.85201627 -0.21907468 1
9.1718807 -0.71411383 -0.22026248 1
2.4814763 -1.38951 0.7682367 2
9.0408564 -1.910906 -0.22795232 1
2.5797319 -2.7566404 0.61042017 1
1.5758307 -1.5358132 0.85911399 1
1.4986895 -1.4508121 0.87713748 8
1.4936178 -1.4548709 0.87712961 10
1.4836259 -1.4527166 0.87836534 11
1.4712207 -1.4474043 0.88022298 8
-0.37889528 -1.4261494 0.91642582 4
-2.3404033 -2.6079659 0.57421935 9
-2.3480723 -2.5972404 0.57451999 12
-2.3685086 -2.5988166 0.57198501 12
-2.3771117 -2.5898407 0.5719713 9
-2.41049 -2.6034734 0.56660044 6
-2.5150433 -1.8149524 0.63055819 71
-2.3828163 -1.7173862 0.65673202 60
-2.3731456 -1.6993904 0.65956271 65
-2.3757091 -1.687842 0.66018414 65
-2.4494753 -2.5675802 0.56591272 3
-2.3723249 -1.2687787 0.69240636 69
-2.3890533 -1.2656263 0.6901899 34
-1.7145121 5.4880915 0.44739792 6
-1.587195 5.2558055 0.47977617 51
-2.3495622 2.3112087 0.73090947 64
-2.4542136 5.2419214 0.43649182 70
-2.4813259 2.4591787 0.70656931 69
-1.5661397 5.255012 0.48078427 53
-2.4377489 5.2551346 0.43602994 61
-2.4880581 2.4816096 0.70412087 67
-2.2995636 5.2547779 0.44404659 34
-2.2985318 5.4411383 0.42357036 100
-1.5449381 5.2478743 0.48252389 57
-2.2333341 5.4985042 0.42074665 6
-2.3650892 1.8735596 0.76233637 42
-2.3565781 1.8823004 0.76259333 67
-2.4823501 2.494076 0.70364207 66
-2.4897227 1.8737096 0.74946618 123
-1.5219734 5.2413025 0.48426619 51
0.89646459 4.2967663 0.63871431 1
2.2615237 3.176923 0.7166838 31
1.2019697 4.2861142 0.63431948 5
1.2257999 4.329874 0.6285063 12
0.43518195 5.2217846 0.52877581 14
0.43048042 4.2271318 0.65090215 13
1.6904755 5.2037177 0.51173586 48
0.44455042 4.2009711 0.65409338 29
0.79313785 5.1547151 0.53518903 12
1.4935741 4.3892765 0.61430126 38
0.70458889 4.3334961 0.63646227 3
0.8162626 5.2084265 0.52839953 46
2.1653159 3.1394579 0.7265268 15
1.5058035 4.3736968 0.61578321 45
1.8279455 2.5410008 0.81034297 7
1.2948152 5.1093888 0.53305292 68
1.4072422 5.1194191 0.52932948 58
0.46170548 4.2342458 0.64997607 16
1.4234478 5.1078753 0.53033012 66
0.83539212 5.2165914 0.52721083 60
3.0658011 1.8387045 0.76989079 2
9.8946199 6.3849545 -0.22660835 1
9.9168491 6.3515491 -0.22657283 1
9.9024658 6.2940631 -0.22123177 1
10.02746 6.3279114 -0.23614807 1
9.9889784 6.2047272 -0.22401901 1
2.5148137 1.9413706 0.81484634 2
1.7126338 1.2449577 0.94400126 42
1.7371575 2.1914597 0.85261816 7
2.5126498 1.9258575 0.8163057 3
1.2795835 1.466037 0.95720977 7
1.2617413 1.4160657 0.96351999 80
2.5104048 1.9103832 0.81776488 4
1.258772 1.4013835 0.96522182 65
2.4984372 1.8878793 0.82067144 3
1.2493573 1.3766602 0.96837616 70
2.499819 1.7598562 0.83066952 2
1.2448354 1.3605822 0.97031927 80
2.549222 1.7871804 0.82392192 1
2.4990103 1.8751124 0.82164752 6
10.653241 -5.1534061 -0.22981091 1
3.1211736 -1.4289374 0.78978777 4
3.0844212 -1.4222493 0.79411721 11
3.0547926 -1.4189924 0.79748297 13
3.0287356 -1.4173939 0.80036688 18
2.9834273 -1.4054013 0.80590147 25
2.4922619 -1.3663069 0.85972691 6
11.720375 1.2166959 -0.21802886 1
11.692652 1.4528821 -0.21807726 1
2.499438 -1.3809289 0.85803229 1
11.273767 -3.4636426 -0.22155888 1
11.703316 -2.1686084 -0.23309799 1
11.726187 -1.1610996 -0.21797092 1
11.814198 -0.33069152 -0.2219934 1
11.648353 -1.9135079 -0.22100241 1
11.894003 -0.61389077 -0.23307426 1
11.789698 -1.6526827 -0.23297293 1
11.15812 -3.8453827 -0.22319503 1
11.506757 -2.8663151 -0.22851749 1
11.653489 1.8088181 -0.21960862 1
2.5081594 -2.6529481 0.75228941 3
1.6016718 -1.5141774 0.92950314 3
1.5786021 -1.4972286 0.93287891 3
2.5091465 -2.5798373 0.75911415 6
1.5832194 -1.5140293 0.93093657 2
1.5413482 -1.4943995 0.93598896 1
1.4937619 -1.4562215 0.94322562 16
1.48602 -1.46741 0.94272619 16
0.8045637 -1.4874153 0.97919226 2
0.78780204 -1.4884716 0.97965342 1
0.80047727 -1.5882941 0.96748847 1
0.45843357 -1.5552608 0.97865009 2
1.054274 -1.5474857 0.96154898 1
0.44844815 -1.567975 0.97717226 2
-2.5395086 -2.8592968 0.66783279 13
-0.38476092 -1.4364636 0.97171754 3
-2.5240633 -2.8241343 0.6722436 27
-2.5282378 -2.8085794 0.67321175 45
-2.5366027 -2.7971866 0.67344207 56
-2.5377927 -2.7788672 0.67490226 63
0.33334526 -1.790558 0.95018476 10
-2.5131354 -1.8122166 0.7512114 65
-0.19391692 -1.5693747 0.96592647 1
0.2094637 -1.6907421 0.96168762 1
-2.3931718 -1.6972886 0.77138406 60
0.32735729 -1.7111437 0.95992327 1
-2.3952298 -1.2782775 0.79574609 59
-2.3923259 -1.6835874 0.77236003 61
-2.4120538 -1.2750745 0.79401344 33
0.31598198 -1.6554805 0.96672899 1
-2.4605715 5.2115006 0.64814878 93
-2.2818818 5.2211204 0.65487868 52
-2.345633 2.3084726 0.85634279 65
-2.4584496 2.4398704 0.8411721 58
-2.466795 2.4635921 0.83924109 62
-2.2815716 5.4077969 0.64023316 71
-2.2549622 5.4470682 0.6381824 82
-2.4800434 1.8678705 0.87008572 131
-2.4348822 5.207149 0.64958376 69
-2.4649007 1.8726298 0.87098092 72
-2.4671245 2.4812794 0.83819437 62
-2.4747963 2.5056307 0.83626437 61
-2.4148321 5.2132568 0.64996368 65
-1.7682397 5.4589152 0.65480888 8
0.53648913 4.270843 0.79615885 10
1.4769552 4.3243113 0.78037781 28
0.28479183 4.3012848 0.79349691 10
1.2074504 4.2383146 0.7926811 12
0.23874764 5.1813254 0.71636075 58
1.6819894 5.168632 0.70468253 24
1.2347558 5.0789809 0.72001868 38
1.3986955 5.0756559 0.7178359 38
0.5924353 5.0899515 0.72441351 7
0.29980758 4.3014293 0.79352051 11
1.120008 4.3445282 0.78487188 7
0.63615191 5.2292447 0.71210313 55
1.5028837 4.3607063 0.77675724 36
1.4201537 5.0894437 0.71630049 51
1.1301007 4.3143263 0.78732872 37
0.31409621 4.2955403 0.79406601 10
1.4379115 5.0856204 0.71632844 51
0.65269083 5.2003155 0.71457011 58
1.528803 4.3929186 0.77348536 60
0.32909173 4.2955818 0.79408956 7
14.720817 6.4018798 -0.18512245 1
3.063689 1.8631359 0.88506687 1
14.743073 6.3516288 -0.18508644 1
14.765159 6.3012934 -0.18505068 1
14.739517 6.2303162 -0.18055744 1
2.710552 3.915504 0.77291065 27
14.750184 6.1752934 -0.17949374 1
1.2892191 1.5382221 1.0130206 1
1.2332276 1.4369406 1.0230449 11
1.2098386 1.3786615 1.0284131 68
1.8108895 2.5518727 0.91428715 21
1.2146459 1.3755929 1.0284207 68
2.5094867 2.0193055 0.913652 18
1.7074544 1.2841494 1.0075818 39
2.5080788 2.003217 0.91469604 21
1.8127562 2.5346549 0.91551059 42
2.509176 1.9902351 0.91539526 20
1.2161992 1.3674865 1.0289462 72
1.8175532 2.5226061 0.9162156 24
2.066303 3.0416579 0.8663938 45
14.709294 -7.182353 -0.21309979 1
3.0778048 -1.407401 0.90450484 4
3.0587153 -1.4096498 0.90586942 9
3.0308108 -1.4071739 0.9080916 10
2.9959023 -1.4008108 0.91099995 13
2.9681139 -1.3979545 0.91322231 23
15.059046 1.1070856 -0.098720983 16
2.4779305 -1.3578513 0.95132321 9
14.851548 0.53734463 -0.078117803 20
14.959937 0.18632439 -0.086656049 13
15.044933 1.0543965 -0.097173288 15
15.038326 0.84776986 -0.095436171 20
14.946946 0.081588097 -0.085454062 15
14.874808 -2.2561052 -0.094409063 16
14.95552 1.4052033 -0.092091516 15
14.891162 -0.72721738 -0.082213119 14
2.4788876 -1.3896102 0.94975656 1
14.919854 2.1718848 -0.097218469 16
14.721667 -6.5745378 -0.19112952 1
14.719042 -5.5099826 -0.15489872 1
2.6654165 -3.9193993 0.77474391 5
1.394608 -1.7981807 0.98902541 3
1.3923523 -1.8087519 0.98832488 6
1.3820277 -1.8055469 0.9890058 7
0.82590938 -1.5011833 1.0325757 1
1.3866647 -1.8281854 0.98709619 5
2.4865429 -3.5620003 0.80931801 33
1.1869116 -2.4010651 0.94844568 1
0.81882095 -1.4972085 1.0330875 2
0.8117671 -1.4932024 1.0335993 3
1.3891765 -1.8474196 0.98553169 8
2.5460975 -3.3618898 0.82143497 57
0.80835664 -1.5005622 1.0330712 3
2.4815588 -3.0734372 0.84538263 2
2.4992149 -3.1218433 0.84105361 1
0.71942496 -1.8183485 1.0080115 1
1.2921704 -2.4253991 0.94338214 3
0.80430567 -1.5060147 1.0327163 3
1.2221668 -2.3435409 0.95216042 3
0.6124925 -1.585445 1.0296277 1
-0.067321338 -2.2721398 0.96756506 1
0.21392033 -2.2781637 0.9702729 1
0.20552503 -2.2856901 0.96956265 1
-0.32152963 -2.3470497 0.95583719 1
-0.33080208 -2.3485839 0.95547402 1
-0.34338462 -2.3615737 0.95406002 1
-0.13061234 -2.2621002 0.96729118 1
-0.18534899 -2.2501807 0.96720499 1
-0.1385057 -2.2604671 0.96727878 1
-0.54237872 -3.9873333 0.81154263 1
-0.51038474 -3.9738624 0.81333572 1
-2.5129626 -2.8704762 0.81191134 15
-0.68223315 -2.0849667 0.96554971 1
-1.0602596 -4.0526371 0.79295093 1
-0.47430742 -2.2693727 0.95803601 1
-0.16184273 -2.2921724 0.96410513 1
0.30392841 -4.1420794 0.8076455 1
-2.5117047 -2.8492444 0.81330734 32
-0.48973566 -2.2638226 0.95801169 1
-0.59545535 -3.9671178 0.81215608 1
-1.5769646 5.2346277 0.87485796 64
-1.7157564 5.4984856 0.85914314 34
-1.5498676 5.2168422 0.87626159 70
-2.2706795 5.202652 0.86089456 59
-2.4706359 2.4520729 0.9703334 65
-1.5307792 5.2152109 0.8767103 71
-1.6723728 5.4400182 0.862876 50
-2.4574161 5.209374 0.85578626 79
-1.5052433 5.2009726 0.87790215 71
-2.4448361 5.2296672 0.85517758 96
-2.2829273 5.4147391 0.85061312 79
-2.459491 2.4587181 0.97056013 60
-2.4181864 5.2234302 0.85616159 81
-2.1707447 5.5180111 0.84837967 39
-2.4568691 2.4737515 0.97014523 63
-2.3413577 1.8734872 0.99462289 57
0.53834039 4.2832084 0.94550353 8
2.716162 4.9442797 0.88600206 17
2.1728487 3.8513956 0.94912595 1
2.7080529 4.8816328 0.88913077 17
1.2586687 4.2545614 0.9431811 4
0.12199136 4.2908969 0.94443083 11
1.7857995 5.1912603 0.88966489 56
0.058897939 5.2036071 0.89637321 68
0.3746894 4.3058882 0.94430399 2
1.2717905 5.0728564 0.90100205 35
2.7145176 4.8517981 0.89039761 17
1.4938283 5.1701021 0.89402175 67
1.1461853 4.3100009 0.94132859 13
1.5761083 4.3829684 0.93310511 17
0.13633287 4.3055744 0.94372034 20
0.39995337 5.0825839 0.90361029 4
1.153314 4.2700143 0.94332939 37
1.5149777 5.1796508 0.89332205 66
0.15119611 4.3102279 0.94353426 26
0.41687351 5.086329 0.90342742 5
18.014835 11.965808 0.078681991 9
3.1005373 1.8869905 0.99877232 9
18.00758 11.880124 0.081498429 9
18.042299 11.813924 0.081973001 9
18.09009 11.756454 0.081630513 14
18.0993 11.673571 0.083635494 14
22.37059 7.4158125 -0.014032083 2
2.7107835 4.0376344 0.92809039 9
22.712336 5.8372107 -0.0069732238 11
20.21599 6.6097479 0.10307841 4
20.525887 5.1166358 0.10998063 7
19.977205 6.6868372 0.11327367 2
22.364103 7.1619625 -0.0095361043 5
1.2282635 1.46128 1.0815673 7
20.722834 6.6993008 0.077181146 2
18.580435 8.5702448 0.14202444 6
18.361786 9.7268829 0.12459569 6
16.881845 9.5227861 0.19523244 2
18.52067 9.7308016 0.11741345 6
22.25775 7.0428648 -0.0024783183 5
22.583708 -11.126772 -0.098519281 3
3.1510682 -1.4338925 1.0087591 1
3.0731878 -1.4063264 1.0129278 9
22.081955 -10.781125 -0.067703441 5
22.442209 -10.768114 -0.083780721 5
3.0416543 -1.4021097 1.0144483 11
3.0154967 -1.4004619 1.0156631 13
24.346651 2.8037145 -0.059297398 11
23.00411 -8.6928062 -0.06661208 11
23.924723 0.29230899 -0.02934392 8
18.826803 2.0938358 0.22366528 14
18.746218 -7.4313087 0.15852384 4
23.614239 4.8802428 -0.040079072 2
23.403841 -4.6641026 -0.02712913 5
18.914663 0.29510772 0.22530566 14
22.735962 -9.1371393 -0.06252332 8
2.9911509 -1.3995793 1.0167763 16
18.843302 -1.9616975 0.22366993 14
18.949133 -3.6959279 0.20471679 12
23.229807 4.8831553 -0.021004396 2
1.422127 -2.5992672 1.0240716 8
2.0537014 -4.0627241 0.94156516 13
1.4115157 -2.5993631 1.0242642 46
1.3237206 -2.5870709 1.0264288 49
1.398787 -2.5916545 1.0248721 46
0.85606325 -1.5583473 1.0847083 1
0.8481043 -1.5525806 1.0851144 1
1.3912394 -2.5990579 1.0246511 51
2.5235682 -3.5699301 0.95401615 50
0.84890437 -1.5733476 1.0840694 1
2.6716855 -3.4240403 0.95644385 8
2.6742897 -3.4536731 0.95508784 31
2.4935324 -3.0931609 0.97573096 1
2.6760092 -3.9096203 0.9348982 39
2.5173416 -3.8242769 0.942707 33
0.8335585 -1.5447377 1.0857195 1
2.573997 -3.3814337 0.96099985 26
2.6275795 -4.0832033 0.92823136 64
2.6152565 -4.0946774 0.92800289 63
2.6115723 -3.4643283 0.95635027 34
-0.39573097 -1.7171487 1.0711272 9
-0.6404376 -2.1878526 1.0430145 1
0.31687859 -4.1003451 0.95516723 6
0.34474289 -1.7955005 1.0759552 1
0.30278713 -4.0703039 0.95671457 33
-1.6016041 -4.0404191 0.93226558 23
-1.4377495 -4.0539289 0.93545395 23
-2.5392456 -2.8357222 0.95400554 4
0.28860003 -4.0681753 0.95679694 72
-2.5191782 -2.7963164 0.95623434 9
-0.88034135 -3.3691669 0.98048687 1
-0.90516597 -3.4026597 0.97835511 1
0.27513942 -4.0660076 0.95688045 90
-2.5217671 -2.779376 0.95675331 17
-1.3670467 -4.0451198 0.93744892 23
-1.0324692 -4.0584669 0.94352221 41
-1.2032181 -3.3888295 0.97265315 1
-1.0479143 -4.0574551 0.94328862 42
-2.5127859 -2.7513471 0.95812756 30
-1.1759791 -4.0584903 0.94078469 17
-1.7243304 5.5265274 1.0637212 16
-1.5722924 5.226655 1.0697951 51
-2.6356516 3.0904019 1.0904734 2
-2.4757626 2.8833909 1.0952663 31
-2.6469297 3.1238968 1.0898966 2
-1.5513232 5.2257504 1.0699677 54
-2.6544347 3.1526313 1.0894305 2
-1.5301908 5.2184615 1.0702454 54
-2.3451438 2.3109813 1.1040001 63
-2.5344348 4.494276 1.0723482 31
-2.4673843 2.4507787 1.1005939 63
-2.4546046 5.2078934 1.0624063 91
-2.2848797 5.2349505 1.0636147 48
-2.2862949 5.4258647 1.0606068 73
-2.4712453 2.4706268 1.1003083 61
-2.4392226 5.2228913 1.0623255 67
-2.4775617 2.4936726 1.0999489 64
-2.6137784 4.1883802 1.075895 5
-2.4844263 1.873374 1.106478 114
-2.6406708 3.1601279 1.0895216 2
0.34664977 4.3073211 1.0947478 6
0.7229535 4.3338385 1.0945703 1
1.0189011 4.2767038 1.0953853 1
1.0460081 4.353343 1.0940301 1
-0.067187317 4.258575 1.0946225 12
-0.17480087 5.2084923 1.0777495 58
0.22673547 4.3220315 1.09428 4
-0.052318577 4.2599463 1.0946459 16
0.24286805 5.1204228 1.0803618 11
0.26046142 5.1407018 1.08004 30
0.27764195 5.2129092 1.0788089 70
-0.038659427 4.2752104 1.0944227 2
1.2034239 5.0913672 1.081103 57
1.2211908 5.0882983 1.081131 57
1.0942425 5.0865889 1.0813156 35
0.29583764 5.2130713 1.0788375 81
-0.024232481 4.2824607 1.0943404 6
1.2392964 5.0871358 1.0811245 56
0.31320143 5.1931686 1.0792142 73
0.71098912 5.2075133 1.07935 70
25.472166 17.000755 0.67941284 8
3.115958 1.8962086 1.1155516 8
25.465694 16.881548 0.68066168 5
25.47122 16.75823 0.68178988 2
16.88883 9.442996 0.86312687 2
16.876549 9.3634148 0.86398184 6
16.916105 9.3095293 0.86390543 4
25.40753 14.418054 0.70421672 5
16.917055 9.2340746 0.86453676 11
25.398449 13.614683 0.71119988 5
16.945686 9.174202 0.86465275 4
17.017946 9.1382475 0.8639642 4
25.407656 13.517836 0.71187955 10
25.450535 16.492329 0.68462497 8
25.385908 13.393464 0.71320921 10
23.12965 15.082575 0.7283752 4
25.233101 6.7650256 0.75858653 21
25.374201 13.275031 0.71434516 7
21.453224 5.6589885 0.821401 6
2.7356708 3.9827473 1.0925026 1
17.655729 -8.6705475 0.85925841 12
3.0865424 -1.4144797 1.1203206 9
17.16819 -8.3531542 0.86857378 16
3.0691593 -1.4176422 1.1205376 15
3.0358365 -1.4123669 1.1210437 15
19.305403 -6.3958144 0.8504582 7
25.180609 -8.6574745 0.74992043 18
18.156595 -6.280005 0.86826825 8
25.151382 -5.2073131 0.76645321 12
2.9707398 -1.3900942 1.1221278 15
25.177776 2.7164843 0.77271932 12
25.169823 -0.04768315 0.77548623 14
18.938438 1.9718783 0.87260747 4
25.162447 -2.0369473 0.77418923 14
18.951006 -3.8385656 0.86751091 12
19.197701 -1.6139212 0.86917901 11
19.140604 0.029537397 0.87125456 9
18.12138 -6.3374801 0.86845845 16
25.154572 -5.2984862 0.76607615 10
25.18148 -0.13878535 0.77529699 14
1.4148309 -2.6102982 1.122432 50
2.0580316 -4.077487 1.0955135 57
1.404346 -2.6081345 1.1225202 63
1.3582851 -2.598655 1.1229014 61
0.98990846 -1.7355766 1.1386756 1
0.98384571 -1.7378592 1.1386662 1
0.91421014 -1.6567585 1.1403003 1
0.87565404 -1.5643139 1.1419832 1
2.4937348 -3.0960467 1.1075565 2
0.87019056 -1.5661983 1.1419746 1
2.6742411 -3.4306824 1.1012498 13
2.5708089 -3.5936093 1.0996945 30
0.64093012 -1.8299999 1.1381295 1
2.5441072 -3.8126221 1.0966204 55
2.5457418 -3.8463178 1.0961001 59
2.6498499 -4.0931263 1.0916263 56
2.674588 -3.4570453 1.1008669 35
2.6719394 -3.4805429 1.1005491 34
2.6247783 -4.0820084 1.0919707 52
2.6650362 -3.8338227 1.0954145 30
-0.50637507 -2.2309344 1.1271211 1
0.20128852 -4.0812516 1.0986013 5
0.3131308 -1.7556204 1.1393584 1
0.18825327 -4.0668025 1.0988249 55
-1.6293054 -4.0576782 1.0883263 1
-2.7458708 -2.8732166 1.0917144 1
0.17405838 -4.0662718 1.0988026 94
-2.7177472 -2.8271122 1.0926652 4
-1.0660745 -4.0589523 1.0929456 28
-1.2085105 -4.0519824 1.0919888 41
-1.2225753 -3.3652568 1.1029127 1
-1.2276682 -4.0596418 1.0917145 46
-2.698168 -2.7893648 1.0933932 8
0.15969525 -4.0696883 1.0987103 99
-1.2425532 -4.0560331 1.0916562 41
-1.2951794 -3.4902837 1.1002882 1
-1.2603546 -4.0598149 1.0914538 33
-2.7078862 -2.7787664 1.0933777 11
-1.4516866 -4.0428843 1.0901407 28
0.146411 -4.0490823 1.0990381 100
-2.6594377 3.772651 1.249274 1
-2.8665061 4.6655512 1.2636254 2
-25.306007 35.521606 1.8936671 10
-27.017208 34.729488 1.8979422 10
-26.092115 35.814384 1.9046433 10
-26.915529 34.849945 1.8986579 10
-2.838949 4.6601586 1.2633197 2
-27.003918 36.249393 1.9188049 11
-2.4661345 2.8622689 1.2354249 61
-2.8181856 4.6645732 1.2632127 2
-26.555614 34.901459 1.8960806 10
-26.575443 34.663666 1.8929827 10
-18.477871 19.505722 1.6130543 3
-18.362064 20.33707 1.622399 3
-18.636507 19.808121 1.6185234 3
-2.7773826 4.6390042 1.2625093 2
-18.654795 19.959295 1.6206207 7
-18.740185 20.189713 1.6244261 3
-18.89397 20.495352 1.6299026 3
-9.0221872 10.918297 1.4060501 2
3.1385605 4.6713428 1.2694255 2
1.2368155 1.4583524 1.2013377 3
1.2238921 1.4263561 1.2007247 35
0.35300112 4.2693038 1.2444655 1
0.85955071 4.277041 1.2459589 4
0.8815046 4.3428192 1.2471788 1
-0.17322648 4.3278461 1.2451737 6
-0.29408109 5.2035723 1.2603939 28
0.068459682 4.3232627 1.2450997 8
0.037831839 5.1167235 1.2588924 15
-0.15676394 4.3176646 1.2449903 8
-0.41157287 4.5710731 1.2495764 61
1.0268301 5.2011089 1.262573 86
-0.39938736 4.5973411 1.2500138 40
0.054584172 5.1216669 1.2589884 16
-0.38548905 4.6137009 1.2502797 24
-0.14256418 4.3272977 1.2451521 9
0.91912878 5.2103233 1.2623339 78
-0.51717055 5.1069555 1.2589285 71
1.0311443 5.0976143 1.2608018 69
21.796827 14.576361 1.6562974 9
3.0956237 1.8902591 1.2327303 15
21.950266 14.581546 1.6588072 9
21.962816 14.480402 1.6580261 6
16.895422 9.3403788 1.5277277 2
16.900002 9.2668819 1.5271779 2
16.928747 9.207058 1.5271546 2
16.964289 9.1510019 1.5272813 4
17.02422 9.1082115 1.5279348 2
22.309692 14.601791 1.6647815 3
25.506638 14.423408 1.7156706 3
25.478556 13.619309 1.7083827 3
19.637712 12.436698 1.6009077 5
25.459005 13.495488 1.7070283 3
25.483013 13.395481 1.7066143 7
25.569229 16.022127 1.7310941 3
25.327438 6.6553903 1.6606085 3
20.406977 5.2702165 1.5636932 4
20.372978 5.1865878 1.5626991 9
25.460659 13.271193 1.7052203 7
17.094955 -8.3501492 1.5233785 12
3.0730596 -1.4009961 1.2280504 4
3.0521574 -1.402303 1.2277035 7
3.0383761 -1.4071721 1.2275074 7
17.095367 -8.2047892 1.5222592 14
25.214939 -7.3800139 1.6622562 6
25.223021 -5.3542814 1.6536058 3
25.240604 2.9481094 1.6468657 6
18.869829 2.1284697 1.5247636 2
25.196327 -1.8957021 1.6443477 9
3.0015736 -1.3998874 1.2268211 10
25.229858 -0.17815354 1.6437019 6
18.865736 -3.9190843 1.529838 8
18.874956 -5.570065 1.5371815 4
19.073484 -0.068675138 1.5265596 14
19.073566 -1.5012778 1.5276364 8
25.208088 -5.4419832 1.653654 12
18.688021 -5.5803442 1.5338165 14
18.82349 2.0577729 1.5237498 8
25.229132 -0.26072279 1.6437024 18
2.0507357 -4.0826306 1.2500957 73
1.4145392 -2.619009 1.2212125 29
1.4061481 -2.6246192 1.2212343 51
0.77169943 -2.6332877 1.2173411 2
0.57624328 -1.6337327 1.199247 1
1.2924515 -2.602313 1.2199732 41
1.3872247 -2.6042533 1.2207505 49
0.8609485 -2.6046116 1.2172712 5
0.95600057 -1.7458732 1.203371 1
0.5705393 -1.6345718 1.1992381 1
0.70658839 -1.6909479 1.2008491 1
0.9252792 -1.678267 1.2020299 1
0.84944749 -2.5967233 1.2170784 33
0.72615772 -1.8094872 1.2029765 1
1.3796147 -2.6116307 1.2208084 54
0.90360421 -1.6350121 1.2011573 1
0.56454629 -1.6354316 1.1992286 1
0.84076387 -2.6004725 1.2170998 55
0.55883652 -1.6362301 1.1992197 1
2.4909461 -3.1027169 1.2394228 1
-0.27008253 -2.1714816 1.2084353 12
-0.70164269 -2.1118383 1.2094667 1
-0.68022794 -2.1443334 1.2098501 1
-1.6315562 -4.0455937 1.245499 8
0.28083929 -4.0850444 1.2413126 82
0.31606555 -1.7916471 1.201285 8
0.25295252 -4.0525932 1.2407098 136
-2.6983449 -2.4146149 1.2329348 1
-2.5326514 -2.2663279 1.2293175 13
0.23880683 -4.0522895 1.2406875 103
-0.85663038 -3.3929756 1.2309605 1
-2.5000398 -2.2237074 1.2284603 46
-0.9345122 -3.4244268 1.2318162 1
0.22363234 -4.0639105 1.2408733 100
-0.96467596 -3.468678 1.2326772 1
-1.4497926 -4.0591178 1.2446678 43
-1.0417622 -4.0588841 1.2427256 42
-2.518826 -2.2224095 1.2286751 64
-1.0572182 -4.0578446 1.2427711 48
-1.2564319 -4.0721784 1.2438897 11
-2.6398523 3.7503171 1.4160485 1
-27.058201 34.803471 3.4472678 6
-2.8466117 4.6395683 1.4596679 4
-24.709551 35.468815 3.4053051 5
-26.978357 34.95237 3.4509487 6
-2.8292747 4.6489844 1.4595902 4
-18.933376 19.990454 2.5942748 6
-2.452172 2.8497612 1.3743883 57
-24.689653 35.179371 3.3923631 5
-18.795809 19.98687 2.5893621 6
-26.853745 35.044319 3.4509332 6
-19.532768 21.041748 2.6548591 2
-18.743189 20.064663 2.5904896 9
-2.8063221 4.6500607 1.4589982 4
-19.479692 21.132807 2.6565106 9
-27.015112 35.520386 3.4755821 6
-18.37966 26.900126 2.8573103 2
-9.4703903 10.530018 1.9083412 4
-2.7834013 4.6510329 1.4584062 4
-9.4277668 10.550494 1.9076749 3
0.35433051 4.2840705 1.394467 3
0.69620705 4.2847071 1.3958412 9
0.7115137 4.2873912 1.3960745 37
-0.019343797 4.2997017 1.3954499 3
-0.13817239 5.1133356 1.4382668 4
-0.12120099 5.1248956 1.4388165 4
-0.078984238 4.3064399 1.3959842 8
-0.51431191 5.0990624 1.4394559 60
-0.10330889 5.1264477 1.4388447 1
-0.30553383 4.3009486 1.3967799 6
-0.055543873 5.2104006 1.4431047 79
0.84892529 5.2193279 1.4455717 76
0.86591947 5.2055736 1.4449706 81
-0.41060805 4.5736513 1.4115773 60
0.68426543 5.1989732 1.4435341 86
0.70150411 5.1977787 1.4435612 86
0.88164306 5.1979127 1.4446814 82
0.71905273 5.1884913 1.4431703 82
0.73731565 5.1891022 1.4433036 21
-0.2922352 4.3150101 1.3974285 8
7.9757833 12.61681 1.9548506 1
19.064215 12.711918 2.3856118 12
19.325962 12.802588 2.4000471 24
3.0943816 1.8881226 1.3496233 16
25.570072 13.431398 2.7077363 18
17.278864 9.0947924 2.2044165 3
16.563784 8.7841234 2.1625826 4
25.577948 13.322702 2.7054482 13
16.03075 10.42273 2.1820183 18
25.587137 13.215052 2.7032666 15
1.2630461 1.4771206 1.2629136 2
1.2510763 1.4468831 1.2612206 24
25.419182 6.7646885 2.5710394 6
1.24859 1.4318908 1.2604843 48
17.572338 11.273661 2.2764282 4
25.571072 13.094611 2.6995804 13
20.409174 5.1887884 2.2882309 16
21.453276 5.6162391 2.3484778 17
1.2384377 1.4051822 1.2590035 79
16.072039 10.371167 2.1823981 18
17.158163 -8.3894796 2.1819773 16
3.0868416 -1.4093403 1.3364906 3
3.0588355 -1.4070362 1.3350857 3
3.023793 -1.4008665 1.3332512 7
25.311535 -7.5135536 2.5765023 21
25.35018 3.0409877 2.530081 12
25.292276 -5.7398176 2.5516284 14
25.300085 -0.35734606 2.51793 14
19.837399 -5.7927632 2.2671475 8
2.9976685 -1.3991101 1.3319541 12
25.289629 -1.7452537 2.5204544 20
19.175234 -1.3771639 2.1898155 27
19.079433 2.2123632 2.1887541 25
19.165966 -4.2652593 2.2117369 30
20.095196 -8.1138391 2.320878 4
19.272316 -0.20494975 2.192456 25
25.314871 -5.8369169 2.5539687 20
25.298685 -0.44449732 2.5179296 20
19.098627 -1.4374467 2.1859283 34
25.313553 -7.3243628 2.5737801 19
0.81698805 -1.6417558 1.2604977 6
1.5688577 -4.0893641 1.3959184 17
0.53582317 -4.0953331 1.3852944 9
0.71949917 -4.0620174 1.3845354 29
0.47277585 -1.723956 1.260901 1
0.42458525 -1.7271905 1.2608253 1
0.81627721 -1.6606944 1.2614391 10
0.46212322 -1.664696 1.2577429 1
0.51923168 -4.0461388 1.3826505 47
0.81929862 -1.6930856 1.2631192 5
0.50553012 -4.0567427 1.3831526 97
0.81447619 -1.6986159 1.2633212 1
1.2090718 -3.9728949 1.3846744 87
0.80715179 -1.7421087 1.265404 1
0.49152699 -4.0613122 1.38334 100
1.1951993 -3.9759297 1.3846527 78
1.4711183 -3.4584506 1.3626755 26
1.1788156 -3.9671962 1.3839988 82
1.6173493 -3.4878314 1.3668833 52
1.8447906 -4.0616961 1.399596 45
-0.63518095 -2.1619351 1.2926651 1
-0.62626761 -2.1221423 1.2905848 1
-1.6651373 -4.0743432 1.4047608 1
-2.5339024 -2.16957 1.3539522 12
-2.5111167 -2.1367552 1.3519984 24
-1.4476711 -4.0498905 1.3991355 29
-2.5057492 -2.1172621 1.3511691 46
-2.508307 -2.1037753 1.3508508 64
-0.88018721 -3.3800385 1.3563646 1
-1.0597667 -4.0599694 1.3928365 35
-1.3053707 -4.0664725 1.3972659 14
-1.0450389 -3.4585748 1.3630158 1
-1.3165438 -4.0533299 1.3968294 37
-2.5059764 -2.0867476 1.350226 70
-1.2588986 -3.3655193 1.3626779 1
-1.330735 -4.049686 1.3969116 47
-0.93633348 -3.4999225 1.3631873 1
-1.3479226 -4.0512338 1.3973033 47
-2.3846748 -1.7192022 1.3342896 62
-2.3900623 -1.7106564 1.3342808 68
-18.228506 26.296673 3.9561417 5
-18.013117 26.185047 3.9376566 5
-17.898842 26.216202 3.9343493 5
-19.301977 20.378428 3.6143212 11
-2.6725914 3.7400672 1.5849457 1
-2.64709 3.7349584 1.5832427 3
-2.654489 3.769804 1.5860194 1
-2.7925942 4.6310153 1.6537664 4
-2.4562457 2.854702 1.5147074 57
-2.7675371 4.6286516 1.6524113 4
-7.9043407 10.033302 2.2924986 2
-10.549799 11.53014 2.5396707 1
-2.7102423 4.5758581 1.6458786 1
-10.20153 11.239487 2.5008295 1
-10.143226 11.255762 2.4984801 5
-8.0844984 9.2294207 2.2493517 2
-8.0228033 9.2262478 2.2456136 8
-7.9825497 9.2464638 2.2446306 6
-10.119993 11.301777 2.5000844 3
-7.8027925 9.6356239 2.2602441 6
0.54659444 4.2723026 1.5444947 34
-0.19553399 4.2750783 1.545944 3
-0.64263886 5.1059108 1.6231421 46
-0.46105707 4.3189545 1.5528471 3
-0.27293003 5.1989088 1.6268584 24
-0.43930101 4.2803855 1.5492216 3
-0.25634485 5.2148485 1.6281043 55
-0.42747736 4.3007112 1.5508085 3
0.63049388 5.2195277 1.6277537 12
0.54054463 5.2079382 1.6262183 57
-0.23662138 5.2030072 1.6269153 66
0.64775044 5.2025447 1.6263868 57
0.66656017 5.1973772 1.6260678 68
0.68429685 5.1902151 1.6255728 71
-0.4138217 4.3111906 1.551527 3
-1.7014058 5.4975495 1.6795171 26
-1.5824237 5.2292361 1.6540858 48
-1.5566922 5.215282 1.652209 60
-0.21824604 5.2029805 1.6267699 66
-1.5376083 5.2136889 1.6515418 59
23.085432 14.874276 3.5839078 7
3.1240249 1.8935429 1.4694538 1
23.095798 14.649604 3.5739927 3
16.829567 11.032855 2.9321725 1
16.696564 10.779324 2.9100056 1
24.823824 9.6190596 3.5105712 3
18.221895 5.022368 2.8237946 7
19.209772 12.246741 3.1682427 5
14.072625 8.1853132 2.5907826 3
18.59833 5.0593219 2.8569813 5
24.827271 7.1451511 3.4409029 3
19.358967 11.601754 3.1494906 2
14.083963 8.1271544 2.5890586 1
18.562069 4.9808178 2.8520451 5
19.981167 9.5082645 3.1105931 7
24.778753 7.9771547 3.458241 3
14.131456 8.0936012 2.5912256 1
15.628186 7.4677525 2.6831851 1
20.042553 8.7066345 3.0861282 7
22.633451 10.033146 3.3444905 6
3.0743926 -1.4036578 1.4438199 6
17.09326 -8.3612614 2.8353708 5
3.0553153 -1.4059078 1.4423954 8
3.0291903 -1.4043579 1.4402626 13
20.370899 -7.5847559 3.0763454 4
2.9872355 -1.3943077 1.436536 25
24.697144 -1.9647946 3.3471062 3
24.588364 -5.5827074 3.3860557 3
18.595892 -1.5369682 2.8023791 1
24.761673 3.0518789 3.3624442 3
18.847752 -0.26822942 2.819308 11
24.668711 -0.43754798 3.337966 3
18.716078 -4.1669645 2.8482916 1
24.649595 -7.0425878 3.4234843 3
19.128107 2.2814689 2.8561273 9
24.654081 -5.6873188 3.393831 6
18.594383 -1.6010612 2.8027267 13
24.674999 -0.52265888 3.3386748 3
19.696909 -5.681541 2.9663031 2
19.001423 2.1999886 2.8440769 13
1.6265583 -4.0771923 1.5463624 90
1.6654342 -3.4706244 1.4974294 24
1.9052349 -4.052896 1.5529004 75
1.4562181 -3.497889 1.4932666 37
1.6419896 -3.4454579 1.494603 48
1.6099356 -4.0740805 1.545639 90
1.6327596 -3.4574671 1.4952861 54
2.6821508 -3.4329648 1.5377225 10
1.5898153 -4.0594826 1.543864 91
2.4849579 -3.0751879 1.5018458 1
2.5128515 -3.1383157 1.5078176 1
1.6199872 -3.4601178 1.4950918 58
2.6701541 -3.4411454 1.5377039 42
1.5779665 -4.0714684 1.5445429 84
1.5689293 -4.0929575 1.546098 73
2.6586385 -3.4513435 1.5378603 37
1.6085901 -3.4664605 1.4952483 48
2.6527929 -4.0207176 1.5798719 57
2.6731575 -3.4991865 1.5420675 39
0.96043277 -3.9470823 1.5207357 78
-0.63358164 -2.0423157 1.3661935 2
-0.40667826 -2.1054208 1.3641108 1
-0.36866802 -1.9751556 1.3523146 1
-1.5541401 -3.84583 1.5418856 3
-0.52973622 -2.1399362 1.370542 1
-2.5248444 -2.0532186 1.4733887 9
-2.5109041 -2.0281913 1.4711441 13
-1.0605484 -4.059248 1.5433624 3
-0.96915644 -3.4356487 1.4894565 1
-2.4964745 -2.0037804 1.4689002 22
-1.0821669 -3.4424374 1.4934626 1
-1.1181377 -3.4274342 1.4934058 1
-2.4969311 -1.9893093 1.4682019 31
-1.1404566 -3.4482563 1.4958116 1
-2.4989555 -1.9759997 1.4676754 48
-1.1959261 -3.3803444 1.4922369 1
-1.2002692 -3.3586752 1.4906608 3
-1.233927 -3.34091 1.4904332 1
-2.3751559 -1.7124051 1.4460756 61
-2.3687098 -1.6964725 1.4448651 67
-24.156012 35.236423 6.398993 4
-2.8366616 4.6293483 1.8537337 4
-2.8160205 4.6338115 1.8527911 4
-10.221076 10.960478 3.0212164 7
-2.6910198 3.7385583 1.7555102 1
-2.6605484 3.7274168 1.7521459 2
-2.6549442 3.7471542 1.7536167 2
-2.7976058 4.6414795 1.8523324 2
-2.4521923 2.8523221 1.6549954 45
-2.7725494 4.6391773 1.8504218 3
-2.6802244 4.5337071 1.8335072 2
-8.3143854 10.390571 2.8158257 7
-10.105206 10.988859 3.0140855 1
-9.3896799 10.167857 2.8816571 2
-7.5502887 10.02559 2.7231934 7
-7.6482592 9.6585312 2.6955047 6
-7.5555611 10.104682 2.7312269 5
-8.2384949 11.806824 2.9475346 13
-7.992239 9.9327707 2.7478502 7
-8.3567419 10.298103 2.8103986 7
0.17650698 4.3485484 1.7039407 1
0.38535342 4.2914515 1.6969577 3
0.39964581 4.2952204 1.6974676 1
-0.38144428 4.3105302 1.705259 2
-0.61404204 4.3143029 1.7107434 2
-0.82154983 5.0938082 1.8093596 25
-0.49699229 5.1183758 1.8052377 3
-0.59939426 4.3195195 1.71101 2
-0.47818786 5.1153555 1.8045361 2
0.48863688 5.2164707 1.810927 63
0.30649984 5.2167735 1.8103973 66
0.32472578 5.2069054 1.8092074 62
0.34288883 5.2009444 1.8085048 41
-0.5826633 4.3149776 1.7100614 2
-0.44058871 5.2255416 1.8172672 71
0.50658035 5.2079558 1.8099805 62
-0.56463695 4.2964549 1.707409 2
-0.42120802 5.2203484 1.8163227 64
-1.6820381 5.4501958 1.8801476 75
-1.5807185 5.2293973 1.8505751 54
30.896187 12.239425 5.2608876 5
29.227287 19.311134 5.4828486 2
29.238281 19.172838 5.4745817 2
30.11528 19.308474 5.5751581 17
28.091072 17.715265 5.2571006 5
3.094564 1.8863833 1.5849983 11
29.285025 18.914083 5.4619861 11
13.617096 8.7447004 3.1437621 7
8.092659 12.797371 3.0197148 0
12.247362 7.5511904 2.9208081 22
12.265245 7.5042648 2.9196184 20
26.527761 7.8355608 4.5687232 3
21.411463 12.448792 4.2091222 22
11.228931 6.7468104 2.7607949 6
20.346874 11.174168 4.0161414 11
12.410513 6.9072475 2.8974347 12
20.273438 11.496697 4.027719 8
20.568909 11.390992 4.0532904 28
21.402452 6.9409857 3.9272158 2
21.022377 8.4492226 3.9468181 6
17.473625 -8.5590162 3.5499065 14
3.0831227 -1.4094255 1.5538493 15
3.0464501 -1.4026132 1.5494044 16
3.0204186 -1.4010689 1.5464386 15
17.267466 -8.3088541 3.5132604 21
26.403551 -5.9194136 4.4942269 1
26.411404 -7.5631156 4.545702 3
18.544445 -4.0681624 3.4903169 8
18.782969 2.1678491 3.4803262 1
26.44775 3.1609192 4.441462 3
26.402988 -1.8369962 4.4205327 14
26.407829 -0.5689972 4.4139338 11
19.018074 -1.3756387 3.5002675 5
19.127802 -5.5219808 3.6053329 0
26.395388 -6.0085092 4.4956784 3
2.9803772 -1.3919693 1.5415008 31
19.496098 -0.3512345 3.5538886 8
18.850891 -1.428355 3.4800196 39
18.730133 -5.611608 3.5610809 35
18.985643 2.1256638 3.5047758 29
1.6883188 -3.4619651 1.6287228 37
1.9427729 -4.0700212 1.7100562 62
1.4147112 -3.4988823 1.6214691 48
1.5729152 -4.0607839 1.6933883 71
1.6762251 -3.4666779 1.6287038 60
1.561024 -4.0726914 1.6943449 58
2.4939959 -3.0906987 1.6365613 2
1.546801 -4.0769558 1.6943227 60
1.6662484 -3.4769073 1.6294196 61
2.6844463 -3.4392295 1.6853716 25
1.647765 -3.4648411 1.6271967 55
1.532153 -4.0771532 1.6938121 62
2.675771 -3.4523458 1.6860894 36
1.6258934 -3.4433959 1.6237495 67
1.5201286 -4.0889416 1.6947685 61
2.6730793 -3.4757299 1.6882793 30
0.95934075 -3.9504859 1.6621989 60
1.3742692 -3.944015 1.6725999 63
2.6674216 -4.049787 1.7477546 58
-0.51939124 -3.9488668 1.6647514 20
-10.223866 -9.9386787 2.9336519 1
-2.7168105 -2.9722621 1.6880919 2
-2.7000604 -2.9353673 1.6834863 2
-2.7016997 -2.9165108 1.682021 2
-9.5908813 -10.370954 2.9168618 19
-2.9191105 -3.4224522 1.7445747 2
-9.6669722 -10.377718 2.9238107 19
-9.929697 -10.281385 2.9375331 6
-9.9966183 -10.208518 2.9369392 4
-2.7338805 -2.8273063 1.6773375 2
-2.7598395 -2.8313327 1.6799779 1
-2.7608895 -2.8125095 1.6785135 1
-2.5298715 -2.2595868 1.6132991 31
-0.3551625 -2.095459 1.4397564 2
-0.36711276 -2.1082392 1.4416878 9
-1.5449771 -3.8572619 1.69385 23
-0.36712158 -2.0600719 1.4360808 1
-2.5178156 -2.2331653 1.6101489 57
-1.0790803 -4.0593991 1.6955609 8
-0.51989484 -2.092015 1.4460785 1
-9.9020519 10.635756 3.4911554 1
-2.651598 3.7453065 1.9236313 2
-2.4543505 2.8562994 1.7975601 41
-2.8455136 4.6452956 2.0562778 5
-9.2629051 10.04149 3.3541958 4
-7.5825677 11.482154 3.3658781 1
-7.6795082 9.7023945 3.1498828 4
-2.8159585 4.6367464 2.0525699 5
-8.0521708 11.983484 3.4727576 4
-9.1479387 9.9872713 3.3356054 9
-8.0695448 10.769837 3.3197622 2
-6.8441362 8.6293182 2.9359624 5
-2.7931297 4.6378746 2.0507286 6
-7.2196236 9.611104 3.0936646 1
-8.0730352 10.852195 3.3303926 4
-2.77033 4.6389012 2.048887 4
-8.8408422 12.46069 3.6057301 2
-8.8385954 10.21099 3.3288906 1
-8.5966721 9.4725552 3.2172782 6
-8.0584917 10.915812 3.3369844 5
0.2237166 4.2753353 1.8471026 1
0.23820516 4.2954364 1.8502537 1
-0.76719159 4.3024964 1.8715141 2
-1.0558002 5.2071686 2.0212195 56
-0.54684156 4.2923722 1.8624742 2
-0.69445282 5.102982 1.9926924 1
-0.75195175 4.3022861 1.8709122 2
0.25445825 5.2065377 1.9944932 47
0.091681816 5.2055306 1.9948634 63
0.11002196 5.2023892 1.9942665 62
-0.6770156 5.1084709 1.9930325 1
-0.73740369 4.3079615 1.8712479 2
0.27265587 5.2048006 1.9942091 58
-0.6610595 5.1216569 1.9946215 3
0.29087371 5.199049 1.9932991 57
-0.64095914 5.1134481 1.9927762 22
-0.72799665 4.334693 1.8750165 2
-0.70684057 4.3134003 1.8709829 2
0.30811223 5.1991558 1.9933262 60
-0.62128949 5.1071024 1.9912428 45
29.497112 12.137274 6.2198949 3
29.374966 11.967642 6.1915483 3
8.6781616 13.753654 3.7311435 1
14.713216 9.742795 3.9440684 1
20.184502 8.915802 4.6484985 12
3.1010909 1.8895552 1.7052474 7
14.825677 9.7526922 3.959888 1
13.32678 5.5680184 3.4298096 15
20.527933 12.296875 4.9471331 20
12.510448 4.8227358 3.263974 9
22.939732 9.223609 5.0733156 4
19.924639 12.591084 4.889863 4
19.928505 12.497119 4.8823624 4
20.59025 4.3291602 4.4834094 11
19.037161 6.0176988 4.3119864 8
14.781769 5.839304 3.6614223 11
19.133337 5.9762902 4.3246527 10
21.587234 3.245656 4.609519 14
13.723341 2.3279963 3.3441474 20
19.071182 5.8845711 4.310791 1
16.81156 -8.2361002 4.1144924 11
3.0914879 -1.4028705 1.664627 5
19.133694 -0.28550565 4.1783595 9
32.095425 -0.59328127 6.2527084 8
3.0654869 -1.4016776 1.6608317 11
29.971937 -6.6321158 6.0282984 14
29.622869 -2.5888352 5.874362 6
18.981871 -4.1046224 4.224504 13
29.927422 -6.7307515 6.0247893 10
32.170162 -0.70587742 6.2650299 4
19.039539 1.9964129 4.1797285 16
39.686028 -1.6840618 7.472014 6
28.050621 -7.7408166 5.7728186 21
19.48568 -1.7602633 4.247148 13
3.0482986 -1.4048578 1.6586148 13
18.481321 -1.7254796 4.0866323 12
19.145428 -5.3176031 4.2967458 13
28.828333 3.1367226 5.7562957 9
37.647594 -2.3807952 7.1522026 12
28.330706 -7.7137518 5.8148699 6
1.6867481 -3.4620459 1.7610172 55
1.9419458 -4.0727015 1.8662417 47
1.5442729 -4.0744615 1.8452808 65
1.6710916 -3.4575427 1.7594281 56
1.3998697 -3.4990907 1.7511814 60
1.4047337 -3.5595372 1.7605764 50
1.5285275 -4.0708785 1.8440044 67
1.6611327 -3.4677298 1.7603513 60
