# .PCD v0.7 - Point Cloud Data file format
VERSION 0.7
FIELDS x y z intensity
SIZE 4 4 4 4
TYPE F F F F
COUNT 1 1 1 1
WIDTH 1312
HEIGHT 1
VIEWPOINT 0 0 0 1 0 0 0
POINTS 1312
DATA ascii
0.25191164 0.62875384 0.14469512 0
0.25934878 0.63029683 0.1513643 0
0.28070524 0.63320374 0.16794054 0
0.29762426 0.63670909 0.18177976 0
0.30668968 0.63863343 0.18853654 0
0.30997285 0.63886982 0.19132179 0
0.32034099 0.63986462 0.19951767 0
-0.027829442 0.58694011 -0.082249463 0
-0.017521154 0.5887211 -0.073769517 0
-0.002038192 0.59053558 -0.061020471 0
0.018364094 0.59292918 -0.044722747 0
0.016920913 0.59399694 -0.045973949 0
0.022417471 0.59343356 -0.041523237 0
0.031187311 0.59502155 -0.034189742 0
0.036714405 0.59577399 -0.029475238 0
0.072827175 0.60191339 0.00022595387 0
0.087496951 0.60569572 0.011649949 0
0.091846779 0.60490984 0.01554729 0
0.11132859 0.6080451 0.030961102 0
0.11688627 0.60983366 0.035528142 0
0.14917436 0.61414856 0.061582465 0
0.1727055 0.61828244 0.080272198 0
0.18920945 0.62109941 0.093636282 0
0.2207956 0.62713015 0.11940462 0
0.22779417 0.62829375 0.12524267 0
0.24072801 0.62910378 0.13559157 0
0.25697839 0.63248777 0.14895925 0
0.25971213 0.6322816 0.15124401 0
0.27788445 0.63539749 0.16573173 0
0.28385913 0.63537711 0.17024936 0
0.31695911 0.64059162 0.1973168 0
0.32854229 0.64450139 0.20648369 0
-0.02645833 0.58755177 -0.081004761 0
-0.0097831544 0.59078199 -0.067326412 0
0.023779642 0.59640479 -0.040494386 0
0.035060249 0.59773707 -0.031268284 0
0.055009056 0.60098636 -0.014308454 0
0.084636584 0.60627043 0.0096505824 0
0.10027823 0.6084848 0.022218846 0
0.10301112 0.61026758 0.024449037 0
0.10712922 0.60920024 0.027541019 0
0.10984377 0.61121082 0.029732684 0
0.12510175 0.61190921 0.041878175 0
0.1452302 0.6153118 0.058252644 0
0.16037348 0.6180442 0.070306942 0
0.22082843 0.62916148 0.11942182 0
0.22645929 0.62914658 0.12403122 0
0.24345422 0.63280332 0.13773401 0
0.27778339 0.6373896 0.16566084 0
0.29737025 0.64104599 0.18164293 0
0.29878104 0.63981938 0.18262911 0
0.35987383 0.65096599 0.23130871 0
-0.015981242 0.59152067 -0.072773889 0
0.0026735812 0.59454334 -0.057360455 0
0.031126682 0.59926653 -0.034105983 0
0.031381812 0.59907836 -0.034207847 0
0.065957569 0.6057061 -0.0055345036 0
0.067719705 0.60643131 -0.0046229097 0
0.077009685 0.60695517 0.0029827715 0
0.082147367 0.60837734 0.0077082068 0
0.089063272 0.60890615 0.012971966 0
0.10030213 0.61047709 0.022147128 0
0.1018114 0.61132658 0.023295693 0
0.12402133 0.61512059 0.040917765 0
0.1267387 0.6149438 0.04297797 0
0.15760773 0.62035346 0.068165235 0
0.17560214 0.62393075 0.082567319 0
0.20160529 0.62625301 0.10385313 0
0.22318304 0.62993884 0.12097664 0
0.23232751 0.63135517 0.12844653 0
0.27784452 0.63964987 0.16554514 0
0.29604286 0.64219195 0.18049176 0
0.32182798 0.64747918 0.20112486 0
0.3245562 0.64781916 0.20304248 0
0.33799115 0.64953464 0.21363254 0
-0.0095533766 0.59484309 -0.067722753 0
0.028741486 0.60132641 -0.036406577 0
0.040587001 0.60379738 -0.026680587 0
0.051749215 0.60586727 -0.017679047 0
0.081171952 0.60951555 0.0062681255 0
0.10348113 0.614245 0.024164559 0
0.10341439 0.61433917 0.024022266 0
0.10841387 0.61426347 0.02879227 0
0.11385237 0.61596876 0.032794084 0
0.15257125 0.62221879 0.063790545 0
0.16198516 0.62303776 0.071445487 0
0.17271425 0.62520123 0.080028892 0
0.18120889 0.62593728 0.086978108 0
0.21339816 0.63112348 0.11305002 0
0.22294632 0.63209999 0.12095729 0
0.23238459 0.6334601 0.12866724 0
0.23932263 0.63625079 0.13419157 0
0.27946436 0.64266652 0.16669931 0
0.29058751 0.64475256 0.1759565 0
0.29497233 0.64536262 0.17964372 0
0.30545777 0.64591688 0.18760692 0
0.30865303 0.64642495 0.19012076 0
0.31897658 0.64759952 0.19845688 0
0.33509955 0.65185714 0.21158247 0
-0.021024775 0.5956127 -0.076787211 0
-0.019514108 0.59461874 -0.075913139 0
-0.0087750461 0.59638947 -0.067228019 0
-0.010085853 0.5974046 -0.068398334 0
0.011109013 0.60056823 -0.051279869 0
0.03125418 0.60304368 -0.034048572 0
0.035586577 0.60421306 -0.03102506 0
0.04077448 0.60573834 -0.02696678 0
0.047648117 0.60677004 -0.021105647 0
0.069181181 0.60954857 -0.0034808442 0
0.072928287 0.61042529 0.00010731188 0
0.079771563 0.61087364 0.0054085706 0
0.081137985 0.61201423 0.0061535295 0
0.11016262 0.61672914 0.02954359 0
0.13720083 0.6216619 0.051334377 0
0.1400871 0.62167448 0.053424332 0
0.15399131 0.62324858 0.064884163 0
0.15939187 0.62515545 0.069295302 0
0.16792029 0.62480122 0.076026648 0
0.18412533 0.62790036 0.089133948 0
0.20344567 0.63113689 0.10476021 0
0.20612992 0.63108236 0.10709933 0
0.2201415 0.63407582 0.11876173 0
0.22822288 0.63477618 0.12509876 0
0.26739556 0.64271039 0.15669662 0
0.28636676 0.64589834 0.17250422 0
0.34415329 0.65482867 0.21897124 0
0.3583568 0.65678704 0.23038718 0
-0.025965411 0.59568053 -0.081292167 0
-0.02456329 0.59680188 -0.080334239 0
-0.018237801 0.5976665 -0.074777871 0
-0.011487393 0.59839332 -0.069270305 0
-0.0087170042 0.59835231 -0.067084223 0
0.032837145 0.60630351 -0.033155832 0
0.034148768 0.6052323 -0.032054018 0
0.044898529 0.60875434 -0.023330392 0
0.058457598 0.61049294 -0.012214172 0
0.066465363 0.61153644 -0.005525534 0
0.08392781 0.61386347 0.0084231962 0
0.095363006 0.61662966 0.017509466 0
0.10345826 0.618218 0.024182152 0
0.11718715 0.61926121 0.03495118 0
0.17751439 0.62917835 0.083963484 0
0.23643038 0.63823253 0.13182519 0
0.23978809 0.63987535 0.13452539 0
0.24878262 0.64211905 0.14176454 0
0.25008413 0.64099073 0.14286202 0
0.25426561 0.64152455 0.14619221 0
0.27809921 0.6461935 0.16572557 0
0.28228465 0.64721817 0.16897964 0
0.29966637 0.64847034 0.18284929 0
0.31727439 0.65263236 0.19713858 0
0.34457555 0.6568675 0.21865796 0
0.35444701 0.65787113 0.22681871 0
-0.013926027 0.60045618 -0.071464926 0
-0.011387624 0.60033935 -0.069259159 0
-0.012663592 0.59945565 -0.070370197 0
-0.0086077824 0.60026616 -0.067118153 0
0.0075739548 0.60329688 -0.054143794 0
0.013781965 0.60426384 -0.048928041 0
0.035555679 0.60821199 -0.030959506 0
0.052047469 0.61179978 -0.017755721 0
0.05584234 0.61240911 -0.014520741 0
0.063600823 0.61258507 -0.0075640315 0
0.067953452 0.61456496 -0.0048735444 0
0.091115095 0.61679351 0.014625942 0
0.096912719 0.61768287 0.018778238 0
0.15262675 0.62839437 0.063745022 0
0.19271363 0.63350153 0.09622322 0
0.21487306 0.63845581 0.11412594 0
0.22446872 0.63933188 0.12208277 0
0.22717431 0.63921607 0.12419572 0
0.24005117 0.64194304 0.13429326 0
0.25932807 0.64523453 0.15006441 0
0.26889089 0.64654958 0.15814577 0
0.27450982 0.64754987 0.16299118 0
0.2982626 0.65185297 0.18182339 0
0.30137083 0.6514042 0.18428849 0
0.32346144 0.65521306 0.20182668 0
0.3248547 0.65632373 0.20298009 0
-0.024719827 0.60084593 -0.080287248 0
-0.012473192 0.60327625 -0.070415623 0
-0.008495504 0.60224807 -0.067179151 0
-0.0098212268 0.60329419 -0.068261638 0
0.0061906241 0.60635221 -0.055366185 0
0.04104957 0.61172426 -0.02676452 0
0.049104273 0.61193419 -0.020062424 0
0.051929623 0.61342245 -0.017411141 0
0.073263817 0.61656356 -0.00019795285 0
0.075864263 0.61633313 0.0019957246 0
0.10360869 0.62236196 0.023956751 0
0.15261482 0.62859428 0.063720264 0
0.16832197 0.6322307 0.075999834 0
0.18721911 0.63418549 0.091521405 0
0.19973522 0.63796496 0.10175072 0
0.20247492 0.63775986 0.10410339 0
0.20636611 0.63859874 0.10716093 0
0.20922121 0.63863349 0.10946649 0
0.23701632 0.6423341 0.1321833 0
0.24455373 0.64379615 0.13846725 0
0.24760786 0.6453408 0.14085883 0
0.24923998 0.64623916 0.14187735 0
0.29102606 0.65322208 0.17580521 0
0.29968226 0.65292287 0.1829835 0
0.35055938 0.66122729 0.22314607 0
-0.0084777251 0.60428417 -0.067215197 0
0.0034262575 0.60641742 -0.057568401 0
0.011301126 0.60836685 -0.051396985 0
0.050365921 0.61447138 -0.018659426 0
0.05618047 0.61640137 -0.01431688 0
0.11175752 0.6242522 0.030873464 0
0.11736529 0.62568045 0.035237957 0
0.13852054 0.62878531 0.052564811 0
0.1888652 0.63728476 0.092882544 0
0.24336724 0.64682466 0.13703606 0
0.26095304 0.64829981 0.1510414 0
0.26362529 0.65075487 0.15318029 0
0.26488712 0.64983082 0.1544929 0
0.2663132 0.65081763 0.15563309 0
0.29859936 0.65567291 0.18186453 0
0.31747761 0.65764862 0.19690095 0
-0.028727841 0.60374707 -0.083410293 0
-0.011968412 0.60533547 -0.070377059 0
-0.0094467271 0.60732353 -0.068168968 0
0.0073927045 0.60927439 -0.054240115 0
0.0087006502 0.61012226 -0.053129561 0
0.011219162 0.6103428 -0.051136579 0
0.012463618 0.61137319 -0.05006982 0
0.039806038 0.61479813 -0.027782584 0
0.052114166 0.61728346 -0.01775682 0
0.070587955 0.62056541 -0.0024655503 0
0.080130868 0.62086731 0.005623796 0
0.08974006 0.62386471 0.012664455 0
0.095034897 0.62355429 0.017515754 0
0.12020627 0.62743461 0.037237082 0
0.12622446 0.62840158 0.041720092 0
0.13084114 0.63008797 0.046091482 0
0.15549639 0.63444328 0.065913551 0
0.18460795 0.63842183 0.089246489 0
0.19010004 0.63944179 0.093826778 0
0.18763815 0.63838315 0.09158548 0
0.19841932 0.64111024 0.10071811 0
0.24152768 0.64740205 0.13569422 0
0.26352522 0.65284532 0.15323821 0
0.26603326 0.65286463 0.15575062 0
0.27324635 0.6530742 0.16164471 0
0.27828032 0.65428591 0.16503665 0
0.29116613 0.65538996 0.17613465 0
0.35709313 0.66654205 0.22838956 0
-0.0081053209 0.60824662 -0.067045845 0
-6.0159713e-05 0.60961556 -0.06087333 0
0.0074183196 0.61130899 -0.054142814 0
0.015199743 0.61317784 -0.047848232 0
0.023940373 0.61353832 -0.041155968 0
0.033404015 0.61598635 -0.033212673 0
0.035781711 0.61589092 -0.031108839 0
0.099551916 0.62737674 0.020229883 0
0.10241523 0.62722951 0.022518115 0
0.13895039 0.63302481 0.052495643 0
0.1407021 0.63397783 0.053372603 0
0.16349202 0.63729131 0.071864352 0
0.1820946 0.64027309 0.087078959 0
0.21112187 0.64604628 0.11100036 0
0.26909426 0.65434241 0.15809622 0
0.28522769 0.65686744 0.17096834 0
0.31568015 0.66327018 0.19540168 0
0.32023913 0.6642316 0.19901176 0
0.34409049 0.6674307 0.21803497 0
-0.0055364985 0.61203998 -0.064952493 0
-0.001410678 0.61268759 -0.061902013 0
0.001197502 0.61256093 -0.05983961 0
0.0024535656 0.61353344 -0.05874959 0
0.019610893 0.61572313 -0.044165306 0
0.037218958 0.61863357 -0.030149868 0
0.036096185 0.61759979 -0.031444613 0
0.071561337 0.62363571 -0.0018493022 0
0.099770129 0.62951809 0.020553686 0
0.10504755 0.62921345 0.025255615 0
0.17334569 0.64096117 0.080148228 0
0.182193 0.6423133 0.08721333 0
0.1945814 0.64424843 0.097328268 0
0.20147133 0.64509112 0.10314949 0
0.19864608 0.6452859 0.100535 0
0.19889516 0.64518553 0.10083978 0
0.20311512 0.64608687 0.10384262 0
0.20842822 0.64599043 0.10849859 0
0.21529967 0.64892954 0.1145686 0
0.21675982 0.6477983 0.11549186 0
0.23234123 0.65123308 0.12796164 0
0.25008041 0.65454996 0.14227091 0
0.26080519 0.65494448 0.15088317 0
0.26387998 0.65703458 0.15335429 0
0.27367371 0.65722913 0.16178188 0
0.29111433 0.66049552 0.17551836 0
0.29428256 0.66129255 0.178634 0
-0.027029784 0.60977191 -0.082495674 0
-0.02141827 0.61132634 -0.078113414 0
-0.0067673214 0.61290669 -0.066063002 0
-0.0079592094 0.61382282 -0.067195453 0
-0.0027788654 0.61360639 -0.062961504 0
0.015761219 0.61699593 -0.047643296 0
0.032008577 0.61890084 -0.034329589 0
0.037203882 0.62058145 -0.030181928 0
0.041043341 0.62169236 -0.026866343 0
0.042352729 0.62088519 -0.025749758 0
0.057405524 0.62315959 -0.013280974 0
0.05888401 0.62414908 -0.012086784 0
0.06539239 0.62534308 -0.0075588389 0
0.081233159 0.62682366 0.0052537052 0
0.07965555 0.62788284 0.004241976 0
0.097010024 0.63067216 0.018290669 0
0.18738748 0.64543301 0.090887457 0
0.20594966 0.64795184 0.10623554 0
0.21291012 0.64912224 0.11214308 0
0.21573552 0.65094906 0.1145042 0
0.24482055 0.65391743 0.13785677 0
0.2502031 0.65523648 0.14199769 0
0.3049168 0.66403443 0.1862714 0
0.31314823 0.66541588 0.19300595 0
0.32340154 0.66867757 0.20109454 0
0.32469612 0.66774279 0.20245472 0
0.32616943 0.66836965 0.20390609 0
0.33565339 0.66949821 0.21109885 0
0.35534954 0.67234409 0.22684212 0
-0.021005545 0.61345178 -0.078081995 0
-0.0051513221 0.61590064 -0.065226838 0
-0.0013967194 0.61656904 -0.06183112 0
0.029585674 0.6214596 -0.036614709 0
0.038437493 0.62354755 -0.029179115 0
0.03600657 0.62152737 -0.03137828 0
0.06393449 0.62641823 -0.0085611129 0
0.074952573 0.62814057 0.00072067219 0
0.078156233 0.62914264 0.0032153572 0
0.091630094 0.63078183 0.013453869 0
0.095638141 0.63176882 0.017183926 0
0.14661705 0.64003301 0.057846002 0
0.19311233 0.64788473 0.095922895 0
0.23315521 0.65488857 0.1288556 0
0.25471365 0.65871632 0.14596809 0
0.26474369 0.66127181 0.15348123 0
0.26440489 0.66126394 0.15342394 0
0.26560697 0.65997291 0.15446715 0
0.30943161 0.66683429 0.1897871 0
0.31738853 0.66844922 0.19640996 0
0.32480586 0.66976112 0.20216887 0
0.33273745 0.67218578 0.20866227 0
0.33888122 0.67367536 0.21398941 0
-0.023978092 0.61351728 -0.080280833 0
-0.00652951 0.61696762 -0.066142216 0
0.032958724 0.62374061 -0.03385371 0
0.046424311 0.62574184 -0.022595946 0
0.048725821 0.62689102 -0.020838849 0
0.05017763 0.62572235 -0.020084498 0
0.059407912 0.62804985 -0.012371742 0
0.068160228 0.62955368 -0.0050889766 0
0.071952537 0.62985712 -0.001279832 0
0.078239776 0.63112342 0.0032242064 0
0.094373837 0.63471192 0.015853219 0
0.13940603 0.64145058 0.052397937 0
0.16514526 0.64617443 0.073072672 0
0.17204441 0.64618027 0.078929462 0
0.18345037 0.64851069 0.087664336 0
0.18192399 0.64770317 0.086677834 0
0.23348938 0.65687609 0.12872468 0
0.24509603 0.66000187 0.13789989 0
0.26033011 0.66266692 0.15040515 0
0.28179556 0.66625142 0.16730343 0
0.3246032 0.67200428 0.20249189 0
0.34792531 0.67594719 0.22056575 0
0.0042969286 0.62167919 -0.057522628 0
0.0085533224 0.62075365 -0.054003123 0
0.035290223 0.62593985 -0.031775754 0
0.048801318 0.62883574 -0.020846469 0
0.055415522 0.62949586 -0.01518716 0
0.071398884 0.6327942 -0.0030062827 0
0.085359588 0.63399845 0.0087441634 0
0.093143977 0.63566399 0.014830733 0
0.099756554 0.63589174 0.019827029 0
0.13317332 0.64307266 0.047226381 0
0.16387694 0.64734495 0.071940944 0
0.20731303 0.65571022 0.10730708 0
0.21832147 0.65702581 0.11628547 0
0.233624 0.6589815 0.12884028 0
0.24388318 0.66113472 0.13670719 0
0.25243142 0.66305554 0.14330915 0
0.33442262 0.67685729 0.21000801 0
-0.019701697 0.61829317 -0.076807737 0
-0.010239605 0.61966169 -0.069554389 0
-0.011575194 0.62035877 -0.070591263 0
0.018688302 0.62517065 -0.045336206 0
0.03832553 0.6277523 -0.029401502 0
0.046512365 0.62966561 -0.022636581 0
0.06677983 0.63246888 -0.0064832391 0
0.070284367 0.63371313 -0.0031172936 0
0.091719881 0.63685018 0.013719627 0
0.095761091 0.63752627 0.01681933 0
0.10605507 0.63921487 0.025195276 0
0.11161625 0.6408748 0.02950781 0
0.12442431 0.64287567 0.039846703 0
0.13441771 0.64401817 0.048440915 0
0.14348918 0.64636022 0.056018226 0
0.16528165 0.65038925 0.073318668 0
0.18122481 0.65192622 0.085959002 0
0.28050041 0.66955405 0.1663432 0
0.3162789 0.67606306 0.19568895 0
0.34942675 0.68122816 0.22185273 0
-0.029157586 0.61976665 -0.083697945 0
-0.019682243 0.62025136 -0.076846108 0
-0.0091716256 0.62251073 -0.068432301 0
0.010154091 0.62611157 -0.052667189 0
0.084302664 0.6386714 0.0074863159 0
0.085460551 0.63762403 0.0085796658 0
0.091702715 0.63879526 0.013759191 0
0.12561516 0.64601392 0.041074678 0
0.13187686 0.64606369 0.045992821 0
0.13062437 0.6452148 0.045114625 0
0.13593934 0.64698648 0.049336728 0
0.13753466 0.64773548 0.050356701 0
0.14676622 0.64829785 0.057982221 0
0.14741991 0.64974844 0.058582596 0
0.17116985 0.65253824 0.077841334 0
0.19218314 0.65715683 0.095045701 0
0.21295148 0.65968817 0.11176179 0
0.24004143 0.66459572 0.13330267 0
0.25086319 0.66633296 0.14233176 0
0.26530778 0.6697796 0.15389816 0
0.27494603 0.67030632 0.16155015 0
0.28594345 0.67149311 0.17066598 0
0.29617503 0.6743961 0.17849664 0
0.31131071 0.67558926 0.19148545 0
0.33132911 0.6797002 0.20747757 0
0.33459687 0.68094081 0.21001884 0
-0.023562036 0.62160337 -0.08009243 0
-0.011689272 0.62469155 -0.07080359 0
0.011441864 0.62720352 -0.051463373 0
0.026402149 0.63127422 -0.039483704 0
0.031660773 0.63087076 -0.035142533 0
0.058456372 0.63513535 -0.013436656 0
0.10666925 0.64321905 0.025227569 0
0.12297335 0.64622933 0.039005857 0
0.13191794 0.64807415 0.046016037 0
0.13791114 0.64972061 0.050388519 0
0.16280542 0.65257561 0.071067989 0
0.16142659 0.65368444 0.070081532 0
0.16177495 0.65357697 0.069898412 0
0.16677082 0.65339893 0.074563973 0
0.1785361 0.6554268 0.083648048 0
0.18124501 0.65744787 0.086087383 0
0.18400751 0.65734339 0.088127606 0
0.19629292 0.65997213 0.097997844 0
0.20353609 0.66119689 0.10391235 0
0.20361188 0.66114765 0.10393941 0
0.2537753 0.66838598 0.14444518 0
0.26267365 0.66980952 0.15155442 0
0.27227893 0.67239034 0.15888941 0
0.29731131 0.67541033 0.17952681 0
0.29858139 0.67643225 0.18076411 0
0.31510347 0.6791271 0.19442753 0
0.31638932 0.68019927 0.19574752 0
0.32528231 0.68207717 0.20251884 0
0.32961383 0.68198228 0.20599033 0
0.34532481 0.68421769 0.21823484 0
0.35723561 0.68583882 0.22784013 0
-0.0076087974 0.62722242 -0.067558691 0
-0.0077929329 0.62722749 -0.067262225 0
0.0035935938 0.62948233 -0.058162674 0
0.026198886 0.63200003 -0.03933112 0
0.060002472 0.63842767 -0.012566279 0
0.073714688 0.64109647 -0.00099260884 0
0.086088985 0.64182031 0.0086046448 0
0.088019863 0.6437611 0.010095557 0
0.090545475 0.6436885 0.012530318 0
0.1005561 0.64432001 0.020584827 0
0.1132723 0.64616233 0.030482898 0
0.13466766 0.64998019 0.048303638 0
0.16200793 0.65565467 0.069805011 0
0.17382833 0.65763485 0.080240265 0
0.20937143 0.66274363 0.10852855 0
0.21296927 0.66376215 0.11159579 0
0.27073407 0.67356575 0.15779719 0
0.30691254 0.68043351 0.18792468 0
0.33422238 0.68523788 0.20896271 0
0.33520696 0.68449354 0.21079083 0
0.35288712 0.68743491 0.22408864 0
-0.023138991 0.62542099 -0.080018193 0
-0.0053663366 0.62915367 -0.065084703 0
-0.003792882 0.62997639 -0.064134784 0
0.039053485 0.63566732 -0.029488893 0
0.047137201 0.63827479 -0.022702036 0
0.055880319 0.63943034 -0.015512948 0
0.060115218 0.64046061 -0.012582915 0
0.069533139 0.64222872 -0.0044095716 0
0.083332911 0.64379668 0.0064396006 0
0.092205413 0.6446985 0.013724152 0
0.093868501 0.64564961 0.015031572 0
0.096638873 0.64552128 0.017126929 0
0.12051149 0.65050912 0.036846794 0
0.12077799 0.65026444 0.036449786 0
0.15904209 0.65791875 0.06784939 0
0.18411346 0.66184211 0.088002749 0
0.18946099 0.66307962 0.092457891 0
0.25714302 0.67437583 0.14708588 0
0.2920827 0.68012929 0.17514674 0
0.30018979 0.68171978 0.18190959 0
0.30271661 0.68181664 0.18452057 0
0.30152261 0.680637 0.18312651 0
0.31664982 0.68423063 0.19532023 0
0.33961612 0.68720245 0.21378015 0
0.34706372 0.68971312 0.21932104 0
-0.014125736 0.62889391 -0.072837517 0
0.00089308619 0.63125205 -0.060348943 0
0.0022673756 0.63220346 -0.059271134 0
0.0075603873 0.63244778 -0.054662108 0
0.019276947 0.63564241 -0.045482557 0
0.029773671 0.63754231 -0.036774836 0
0.077622086 0.64431947 0.0020559661 0
0.078950703 0.64533657 0.0031696926 0
0.083331093 0.6465326 0.0063521694 0
0.092261583 0.64673012 0.013822623 0
0.10173973 0.64942896 0.021645255 0
0.10085993 0.6482355 0.020038055 0
0.10602796 0.64984447 0.024960613 0
0.11391237 0.65176409 0.031147366 0
0.2405673 0.67287862 0.13342464 0
0.25836813 0.67550921 0.14831558 0
0.27220345 0.67898375 0.15923534 0
0.31224555 0.68562686 0.19182996 0
0.31024626 0.68461204 0.19008572 0
0.32927001 0.68845677 0.20552315 0
0.33400202 0.68942434 0.20906778 0
0.34879234 0.69069678 0.22064108 0
0.00079379603 0.63316423 -0.060380172 0
0.019190755 0.63768244 -0.045245703 0
0.070814498 0.6454559 -0.0035263533 0
0.076295137 0.6473164 0.000842334 0
0.087323837 0.64916992 0.0097680567 0
0.095557682 0.65094417 0.015926968 0
0.097089142 0.64969015 0.017116943 0
0.13249062 0.65662467 0.046279777 0
0.14018221 0.65868175 0.051552612 0
0.15125914 0.65937382 0.060993437 0
0.18154168 0.66433114 0.085890085 0
0.30888245 0.68773896 0.18897779 0
0.34317434 0.69275892 0.21548206 0
0.012763128 0.63829529 -0.050686613 0
0.031372465 0.64051521 -0.035399165 0
0.079145312 0.64929885 0.0029535093 0
0.081959069 0.64947069 0.0054438631 0
0.081492677 0.64918494 0.0054488597 0
0.090096772 0.65091014 0.012053793 0
0.099639654 0.65380138 0.01930636 0
0.10999542 0.65507549 0.02771334 0
0.11256666 0.65482903 0.030012038 0
0.11845576 0.65665442 0.034267165 0
0.12846461 0.65712941 0.042505756 0
0.15142664 0.66138422 0.060974494 0
0.15559885 0.66232026 0.064519368 0
0.16648951 0.6633333 0.073266625 0
0.18982691 0.66916651 0.092312731 0
0.19246949 0.66928554 0.095065609 0
0.22580278 0.67387807 0.12171908 0
0.22731058 0.67495233 0.12267598 0
0.2375017 0.67716736 0.13072067 0
0.25584656 0.68023151 0.1461512 0
0.26006493 0.68045139 0.14892951 0
0.29015091 0.6851446 0.17356163 0
0.2979129 0.68589944 0.17990297 0
0.30318141 0.68812692 0.18421057 0
0.31424004 0.68885034 0.19292849 0
0.33122683 0.69151795 0.20662554 0
0.33698204 0.69357479 0.21109477 0
0.35391113 0.69689703 0.22476119 0
-0.006927656 0.63699806 -0.067144789 0
-0.0016235746 0.63737589 -0.062835723 0
0.0064402334 0.63907683 -0.056179058 0
0.010308329 0.64026588 -0.052902427 0
0.026147466 0.64266473 -0.039947849 0
0.028835498 0.6425671 -0.037672009 0
0.032730673 0.6434257 -0.034258038 0
0.068294883 0.64920163 -0.0060004396 0
0.079212971 0.65127552 0.002932779 0
0.089125186 0.65395284 0.010823721 0
0.095988356 0.65472001 0.015964501 0
0.097293757 0.65376282 0.017081659 0
0.11281371 0.65678698 0.029999811 0
0.12030252 0.65784013 0.035569239 0
0.12847267 0.65935045 0.04250567 0
0.13126969 0.6594488 0.0447721 0
0.14570537 0.66255403 0.056647494 0
0.17074084 0.66721702 0.076732166 0
0.16933766 0.66631722 0.075562544 0
0.18171398 0.66834092 0.086011 0
0.26839745 0.68426609 0.15578844 0
0.27955362 0.68575263 0.1647014 0
0.2903918 0.68717545 0.1735089 0
0.30468854 0.69123113 0.18558313 0
0.32711428 0.6949743 0.20294681 0
0.35755235 0.69865751 0.22720616 0
-0.022812678 0.63651592 -0.08009772 0
-0.010420943 0.63770628 -0.069869131 0
-0.01181278 0.63676977 -0.070931323 0
0.0026104227 0.64035869 -0.059691224 0
0.00090447441 0.63934302 -0.060551979 0
0.027797714 0.64547318 -0.038988177 0
0.032856282 0.6454587 -0.03427903 0
0.048840001 0.64865923 -0.021559726 0
0.050528184 0.64750087 -0.02053605 0
0.059884157 0.65018141 -0.012907402 0
0.091678657 0.65586501 0.012947911 0
0.14751789 0.66527379 0.057601221 0
0.16623558 0.66746503 0.073587909 0
0.22309056 0.67838985 0.1195288 0
0.2329945 0.68014991 0.12773049 0
0.25202927 0.68344498 0.14227188 0
0.26976839 0.68522847 0.15691048 0
0.28767478 0.69014639 0.17144403 0
0.29196736 0.69040745 0.17454724 0
0.31912994 0.69564086 0.19668448 0
0.3327153 0.69697922 0.20809335 0
0.35077825 0.70092869 0.22231776 0
-0.02309013 0.6384567 -0.080100551 0
-0.013918394 0.63887668 -0.072910741 0
0.026578806 0.64647973 -0.040250763 0
0.03150532 0.64651656 -0.035398472 0
0.036499109 0.648314 -0.031512707 0
0.045260217 0.65028149 -0.024895383 0
0.051743552 0.65031606 -0.019474044 0
0.075073309 0.65459508 -0.00043059152 0
0.12890115 0.66335809 0.04249103 0
0.15575366 0.669339 0.06462428 0
0.16408268 0.66970891 0.071173213 0
0.17108902 0.67143106 0.076746404 0
0.17635077 0.67279214 0.081359856 0
0.22283895 0.68031687 0.11952717 0
0.23468275 0.68307865 0.12871487 0
0.28456751 0.69087887 0.16885127 0
0.31154162 0.69523889 0.19051997 0
0.32178825 0.69778025 0.19900826 0
0.3284905 0.69812346 0.20434511 0
0.3348943 0.69955927 0.20921367 0
0.34657061 0.7017653 0.21869197 0
0.3507821 0.70305705 0.22239412 0
-0.023339123 0.64037567 -0.080119714 0
-0.018541899 0.63992828 -0.076332107 0
-0.015437869 0.64166611 -0.074080363 0
-0.011753516 0.64070743 -0.070880882 0
-0.0061910581 0.64226949 -0.066546656 0
-0.0034857504 0.64230853 -0.064514257 0
0.035315514 0.64983928 -0.032586668 0
0.039276905 0.65027869 -0.029444162 0
0.065571703 0.65577632 -0.0086577535 0
0.073526755 0.65547931 -0.001540449 0
0.10552374 0.66255867 0.023920022 0
0.12038581 0.66544724 0.035695072 0
0.15833044 0.6703124 0.066377424 0
0.16414851 0.6717366 0.071262255 0
0.18204695 0.67451799 0.086140133 0
0.2134378 0.681548 0.11131608 0
0.22428623 0.68334782 0.12064969 0
0.24795267 0.68679351 0.1390999 0
0.25060886 0.68646258 0.141348 0
0.25364482 0.68843371 0.14354189 0
0.25659585 0.68836498 0.14570831 0
0.25791872 0.68934369 0.14712301 0
0.26158205 0.68924338 0.14964466 0
0.27352133 0.69117856 0.15961093 0
0.29487377 0.6945262 0.17702033 0
0.29913479 0.69555718 0.18067938 0
0.30185235 0.69539851 0.18276222 0
0.032828722 0.65213114 -0.035038851 0
0.066952787 0.656587 -0.0074734427 0
0.073781833 0.65782791 -0.001367925 0
0.11090252 0.6647293 0.0282869 0
0.11371642 0.6663335 0.030411435 0
0.13303998 0.66821659 0.045841131 0
0.17711538 0.67665321 0.081771404 0
0.19670145 0.68063617 0.098025836 0
0.20102468 0.68083733 0.10099874 0
0.20214373 0.67981952 0.10256156 0
0.24966806 0.68970585 0.14023198 0
0.25096649 0.68849438 0.14134566 0
0.25510961 0.68940502 0.14472558 0
0.28307992 0.69508648 0.16709471 0
0.30067444 0.6985606 0.18159267 0
0.004625421 0.64789879 -0.057475038 0
0.027976621 0.6515376 -0.03908468 0
0.042303573 0.65426499 -0.027213356 0
0.046491567 0.65482271 -0.023866512 0
0.058633219 0.65737963 -0.013853291 0
0.076562718 0.66139072 0.00068646017 0
0.13301191 0.67024934 0.045794554 0
0.14315903 0.67274195 0.054290514 0
0.1519706 0.67439073 0.060825527 0
0.15868382 0.67436045 0.066883877 0
0.16422611 0.67599314 0.071114942 0
0.24828644 0.69083005 0.13898258 0
0.24689437 0.69014794 0.13808827 0
0.24954629 0.69200885 0.14021972 0
0.25366771 0.6925512 0.14362474 0
0.28568602 0.69686818 0.16933797 0
0.28844076 0.69707578 0.17143053 0
0.31547964 0.70341957 0.19373012 0
0.34681144 0.70874625 0.21856061 0
-0.016851295 0.64695191 -0.075034194 0
-0.01686894 0.64702481 -0.074994817 0
-0.015168061 0.64784765 -0.07403288 0
0.016023863 0.65282172 -0.048911355 0
0.060291741 0.65984231 -0.012773274 0
0.10435928 0.66776055 0.02296311 0
0.11132487 0.6686461 0.028353844 0
0.15301841 0.67556155 0.062420934 0
0.17315707 0.67997855 0.078460842 0
0.17697532 0.68091404 0.082157955 0
0.19425403 0.68281054 0.095611073 0
0.19972003 0.68414384 0.10000765 0
0.21150751 0.68609935 0.10978594 0
0.21625116 0.68650657 0.11355365 0
0.25533509 0.69354987 0.14421952 0
0.26430318 0.69579059 0.15199411 0
0.28834212 0.69914305 0.17143947 0
0.32583594 0.70615745 0.20151542 0
0.33949864 0.70956337 0.2128547 0
-0.016628757 0.64916837 -0.075234957 0
-0.011233829 0.64861816 -0.070795156 0
0.015119154 0.65383559 -0.050308209 0
0.019824054 0.6558696 -0.045517445 0
0.039788004 0.65840942 -0.029299675 0
0.039708219 0.65837359 -0.029411497 0
0.046723761 0.65890652 -0.02400041 0
0.075417966 0.66436845 -0.00031932991 0
0.082218885 0.66493702 0.0048120213 0
0.097696975 0.66905117 0.017344084 0
0.10015763 0.66892552 0.019528745 0
0.17322546 0.68202811 0.078455895 0
0.18156306 0.68276918 0.08504843 0
0.18981077 0.68557721 0.091984399 0
0.2008747 0.68772209 0.10083003 0
0.21787724 0.68907422 0.11482171 0
0.27694586 0.69946498 0.16169985 0
0.32135952 0.7074371 0.19802238 0
-0.026292263 0.64895862 -0.082815222 0
-0.013946198 0.65072197 -0.072899073 0
0.0093866661 0.65461457 -0.054035753 0
0.013556223 0.65667641 -0.051099412 0
0.048125628 0.66197985 -0.022595707 0
0.053815641 0.66354811 -0.01860249 0
0.078553036 0.66660571 0.0020528398 0
0.082418524 0.66749561 0.0052054734 0
0.11157092 0.67258775 0.028631998 0
0.11289824 0.67361462 0.029670492 0
0.14051762 0.67895818 0.051995389 0
0.20778424 0.689785 0.10618331 0
0.20927967 0.69061452 0.10740191 0
0.24000624 0.69594198 0.13251083 0
0.24303554 0.69569302 0.13473557 0
0.26887739 0.70035464 0.15534522 0
0.27045107 0.70132273 0.15652043 0
0.27204454 0.70215285 0.15759765 0
0.27849504 0.70275056 0.16317846 0
0.27840754 0.7027036 0.16304375 0
0.30837625 0.70737672 0.1881496 0
0.31564203 0.70792848 0.19349717 0
0.31869298 0.70974529 0.1958942 0
0.32599843 0.71045148 0.20130888 0
0.34827682 0.71410704 0.2198969 0
0.34744674 0.71519893 0.21822591 0
-0.017990051 0.65206051 -0.076211698 0
-0.004188288 0.65543252 -0.065323457 0
0.0053447112 0.6557157 -0.05755299 0
0.013606284 0.65851653 -0.051256377 0
0.02790834 0.6601482 -0.039164923 0
0.052375495 0.66451496 -0.019347062 0
0.070427686 0.66855818 -0.0051722885 0
0.071703941 0.66755211 -0.0039433427 0
0.092437655 0.67117095 0.012596205 0
0.096259594 0.6722647 0.016391134 0
0.10055165 0.67292351 0.019330882 0
0.10200782 0.67390662 0.020477884 0
0.10881813 0.67495471 0.026304163 0
0.11933501 0.67710495 0.034578711 0
0.12917329 0.67916226 0.042690858 0
0.13051677 0.67808819 0.043743934 0
0.15436737 0.68334925 0.062686339 0
0.1587629 0.68229854 0.065961353 0
0.19150768 0.6882987 0.092752807 0
0.19569296 0.69060391 0.096307963 0
0.20937353 0.69266939 0.1073632 0
0.218373 0.69291854 0.11480358 0
0.23054036 0.6953491 0.12455659 0
0.25180736 0.69972807 0.14152692 0
0.25724193 0.70115501 0.14630796 0
0.26750034 0.70156085 0.1540426 0
0.27712119 0.70397687 0.16189975 0
0.28156391 0.70454288 0.16533625 0
0.29194725 0.70726359 0.17390428 0
0.30420327 0.70886964 0.1845219 0
0.30732468 0.70879281 0.18642096 0
0.30570042 0.70983666 0.18544315 0
0.31643692 0.71147764 0.1932465 0
0.32037532 0.7127378 0.19678055 0
-0.016549965 0.65496778 -0.075471222 0
-0.013920633 0.65489185 -0.073082283 0
-0.0068942048 0.6555872 -0.067555979 0
-0.0014910586 0.65724933 -0.062990934 0
5.2262098e-05 0.65820771 -0.062071301 0
0.001467485 0.6568467 -0.060827479 0
0.0095129348 0.65874863 -0.054089677 0
0.022589318 0.66116655 -0.04334975 0
0.10326223 0.67490739 0.021725366 0
0.12086806 0.67805088 0.035837743 0
0.13340561 0.68197435 0.045966953 0
0.16110833 0.68490887 0.068497479 0
0.1961021 0.69246751 0.096390203 0
0.20802167 0.69378841 0.10630844 0
0.23058888 0.6975196 0.12463227 0
0.2319527 0.69844496 0.12572147 0
0.24486506 0.70069838 0.13586856 0
0.24654847 0.70179468 0.13767205 0
0.30205697 0.71149313 0.18294889 0
0.31012923 0.7125538 0.18898126 0
0.32590327 0.71468562 0.20167217 0
0.33606097 0.71623522 0.20915571 0
-0.016424391 0.65707064 -0.075115532 0
0.00028424338 0.65995127 -0.061770633 0
0.0042919107 0.66078377 -0.058816601 0
0.0095506907 0.66056359 -0.054327119 0
0.01746371 0.66158044 -0.047606975 0
0.021592878 0.66220438 -0.044468474 0
0.052730933 0.6684944 -0.01917281 0
0.05648993 0.66941434 -0.015978411 0
0.067254126 0.67063707 -0.0078921542 0
0.070466027 0.67263579 -0.0051538963 0
0.084032863 0.67333484 0.0061628441 0
0.10315788 0.67688274 0.021770583 0
0.10665503 0.67876065 0.024496816 0
0.11810763 0.68014574 0.033450302 0
0.12398735 0.68162239 0.037836127 0
0.1304924 0.68224949 0.043905862 0
0.1346948 0.68310326 0.047127564 0
0.14870603 0.6859861 0.058054246 0
0.18208003 0.69105577 0.085109577 0
0.18664983 0.69153792 0.089076653 0
0.1945163 0.69371295 0.09555804 0
0.21702754 0.69839478 0.11335935 0
0.22247785 0.69798952 0.11806509 0
0.24339946 0.70178467 0.13495947 0
0.25036803 0.70261675 0.14017156 0
0.25177744 0.70362765 0.14135095 0
0.25915626 0.70453727 0.14712924 0
0.30454358 0.71297348 0.18404633 0
0.31066152 0.71476567 0.18920612 0
0.34262714 0.72007847 0.21501698 0
-0.021790961 0.6574446 -0.07975699 0
-0.017617824 0.65796798 -0.076528259 0
-0.013712151 0.65877461 -0.073157825 0
-0.008183552 0.66016173 -0.069115564 0
0.00028215349 0.66188717 -0.061813757 0
0.03747895 0.66896838 -0.031623032 0
0.08552219 0.67654276 0.0070382552 0
0.08867617 0.67653757 0.0095888581 0
0.13466261 0.68514287 0.047078025 0
0.14591806 0.68815887 0.056249164 0
0.14903638 0.68794358 0.057990149 0
0.16268529 0.69119275 0.06947042 0
0.19477837 0.6957019 0.095424019 0
0.23659416 0.70319182 0.12919228 0
0.24242398 0.70501781 0.13350092 0
0.24770367 0.70485502 0.13815951 0
0.27497968 0.71050787 0.15999226 0
0.27885884 0.71142101 0.16280477 0
0.28083339 0.71204799 0.16420117 0
0.30469707 0.71509206 0.18416367 0
0.33435193 0.72097021 0.20652299 0
-0.00088403374 0.6627934 -0.063000448 0
0.012659777 0.66567165 -0.051989771 0
0.016423289 0.66646057 -0.048864938 0
0.10087096 0.68097472 0.01949729 0
0.10955067 0.68282461 0.026665051 0
0.11738322 0.68360162 0.032772858 0
0.12397571 0.68573582 0.038022269 0
0.17084089 0.69449943 0.076114073 0
0.1806991 0.69637674 0.083611175 0
0.23374245 0.70552111 0.12692258 0
0.2450892 0.706949 0.13569701 0
0.24644199 0.70795977 0.13704623 0
0.28184852 0.71309787 0.16502593 0
0.29097155 0.71440774 0.17333843 0
0.30954412 0.7179057 0.18769775 0
-0.013172507 0.66305971 -0.073372036 0
0.0085795559 0.66673619 -0.05517308 0
0.079965889 0.67868721 0.0028134561 0
0.091077834 0.68185699 0.01146412 0
0.10855044 0.6836856 0.025718877 0
0.11605944 0.68678582 0.031702578 0
0.12060533 0.68758744 0.034997839 0
0.13532516 0.68894166 0.047231704 0
0.14073883 0.69098753 0.051660959 0
0.15468611 0.69337183 0.063021049 0
0.18409091 0.6983639 0.086379632 0
0.20096952 0.70099998 0.10018716 0
0.20696354 0.70305365 0.10514512 0
0.22017528 0.70412958 0.11585765 0
0.22716469 0.70509332 0.12127617 0
0.26779914 0.71208876 0.15460292 0
0.27881712 0.71566164 0.16269822 0
0.29261449 0.71755266 0.17399295 0
0.29385903 0.7187022 0.17519633 0
0.297149 0.7188971 0.17736651 0
0.31188083 0.71996653 0.19007917 0
-0.021900106 0.66310132 -0.080069646 0
0.0091702342 0.66977859 -0.054908376 0
0.012884699 0.66960919 -0.052221268 0
0.045409147 0.67537332 -0.025573459 0
0.058762591 0.67669207 -0.014966644 0
0.074636102 0.68103731 -0.0014944326 0
0.077834658 0.68087077 0.00026252167 0
0.083060667 0.68259156 0.0048677968 0
0.10206475 0.68462569 0.019577006 0
0.11235943 0.68808454 0.028601397 0
0.12194255 0.68867266 0.036208779 0
0.13118938 0.69030452 0.043973811 0
0.13959672 0.6918782 0.050092541 0
0.17425443 0.69800323 0.078016303 0
0.17554408 0.69881022 0.079239801 0
0.24508545 0.71115375 0.13600008 0
0.25655752 0.7129451 0.14500402 0
0.29270089 0.71980751 0.17403992 0
0.30832094 0.72239947 0.18548785 0
-0.020334883 0.66575474 -0.078776307 0
0.019378953 0.67218941 -0.046592005 0
0.088649645 0.68598032 0.008953196 0
0.12608866 0.6925205 0.039137121 0
0.14274885 0.69549155 0.052390695 0
0.15638806 0.6968807 0.0639631 0
0.21412677 0.70725036 0.11070532 0
0.22299546 0.70829093 0.1179738 0
0.22864614 0.70998228 0.12262927 0
0.24379671 0.71234012 0.1349173 0
0.25921792 0.71492136 0.14724311 0
0.27582473 0.71767789 0.16041519 0
-0.030616619 0.66605991 -0.086903177 0
-0.018841732 0.66861004 -0.077737637 0
-0.016110105 0.66859949 -0.075628594 0
-0.014940172 0.66791427 -0.07445024 0
0.035919495 0.67669195 -0.033658888 0
0.080389619 0.68464059 0.002681701 0
0.081695974 0.68560952 0.0038707037 0
0.12193304 0.69267035 0.035977319 0
0.15509221 0.69996274 0.062680535 0
0.15781416 0.69976819 0.064844213 0
0.21301776 0.70903349 0.10980577 0
0.22463016 0.71141261 0.11910454 0
0.29308289 0.72395152 0.17399672 0
0.30661598 0.72604692 0.18460558 0
-0.010690089 0.67208338 -0.071241304 0
0.0028807409 0.67377818 -0.060627095 0
0.0095033161 0.67427021 -0.055015042 0
0.029133603 0.67818385 -0.039114825 0
0.038517516 0.68053782 -0.031357937 0
0.046821475 0.68209183 -0.024606874 0
0.075106412 0.68673968 -0.0018032491 0
0.073884986 0.68573624 -0.0030322261 0
0.12211117 0.69467592 0.035999943 0
0.13866112 0.69885331 0.049362276 0
0.13971753 0.69735497 0.050383948 0
0.14400484 0.69868135 0.053586259 0
0.15621027 0.7009967 0.064068943 0
0.16873083 0.70281154 0.074050792 0
0.1757784 0.70508742 0.079815835 0
0.20031914 0.7092703 0.099359348 0
0.20344572 0.70896238 0.10171388 0
0.20197335 0.70980918 0.10060837 0
0.21031898 0.71151263 0.10732865 0
0.22049561 0.71261144 0.11584 0
0.2278301 0.7150805 0.12098947 0
0.2371323 0.71549153 0.12915039 0
0.26234153 0.721403 0.14929807 0
-0.022455417 0.67184854 -0.080838889 0
-0.01986438 0.67193037 -0.078976005 0
-0.016956378 0.67151952 -0.076706946 0
0.0096051469 0.67620295 -0.055098914 0
0.010923795 0.67712682 -0.054058984 0
0.018479548 0.67741388 -0.04771436 0
0.0209 0.67884469 -0.045734204 0
0.023807932 0.67837048 -0.043621913 0
0.031638887 0.68004155 -0.03698644 0
0.036122769 0.68058759 -0.033707876 0
0.045839094 0.68315893 -0.026071388 0
0.048180055 0.68309224 -0.023476545 0
0.060405016 0.68574107 -0.013799521 0
0.08724644 0.69108742 0.008090619 0
0.10973404 0.69401348 0.026139341 0
0.115667 0.69657648 0.03088703 0
0.14684892 0.70064217 0.055929128 0
0.14845541 0.70146757 0.057077996 0
0.15517648 0.70404047 0.0626956 0
0.19656962 0.71073771 0.095817856 0
0.25500974 0.72167653 0.14140239 0
0.025426582 0.68128055 -0.042747207 0
0.047127765 0.68626642 -0.024616687 0
0.054997358 0.68601841 -0.018129254 0
0.11989084 0.69851428 0.033619065 0
0.13127069 0.70024425 0.043368295 0
0.1411456 0.70317221 0.051598869 0
0.15387186 0.70502782 0.061580379 0
0.15515938 0.70600641 0.062680833 0
0.15932399 0.70672506 0.066056758 0
0.18002522 0.71059388 0.083183251 0
0.18167543 0.70992005 0.084087595 0
0.19512235 0.7119776 0.094660945 0
0.19371788 0.71306336 0.093685098 0
0.19372924 0.71296763 0.093798555 0
0.19663966 0.71281421 0.095730111 0
0.20359178 0.71346927 0.10145716 0
0.20199382 0.71261221 0.10047206 0
-0.025234979 0.67443264 -0.083066814 0
-0.020770863 0.67498571 -0.080156602 0
-0.018188816 0.67465824 -0.077854194 0
-0.010101885 0.67613524 -0.071312465 0
0.06632556 0.69038761 -0.0091970684 0
0.074881241 0.69153237 -0.0026483946 0
0.083940916 0.69408733 0.0044703111 0
0.12882388 0.70252627 0.041275419 0
0.14164142 0.70505577 0.051309232 0
0.1663125 0.70913589 0.071968049 0
0.19238253 0.71408468 0.092755042 0
-0.017887287 0.67851096 -0.077824533 0
-0.0055841096 0.6792689 -0.067890406 0
-0.0024016015 0.68003023 -0.064691454 0
0.039255008 0.68868023 -0.031238232 0
0.058199823 0.69189155 -0.016221181 0
0.07512553 0.6955424 -0.0026388171 0
0.080621824 0.69578111 0.0023610205 0
0.08677116 0.69571936 0.0069665033 0
0.092298463 0.69748408 0.011289842 0
0.12332027 0.70323622 0.036582462 0
0.1346119 0.70447308 0.0455961 0
0.13990676 0.70631748 0.050211068 0
0.14886749 0.70775121 0.056630753 0
-0.016589012 0.67937976 -0.076691791 0
0.0049211979 0.68439716 -0.059561286 0
0.044652514 0.69166744 -0.027165901 0
0.049855012 0.6910727 -0.023175482 0
0.0705847 0.69503802 -0.0058932644 0
0.08977516 0.69981289 0.0089382976 0
0.10023435 0.70118958 0.018182207 0
0.10914842 0.70233047 0.025394343 0
0.12517482 0.70588344 0.037641957 0
0.12757918 0.70558292 0.040063001 0
0.14169052 0.70912546 0.051377319 0
0.1580568 0.71162647 0.064800099 0
0.17113109 0.71520263 0.076070614 0
0.17943563 0.71605271 0.080415048 0
-0.027235236 0.6803211 -0.08525122 0
-0.011405723 0.68183786 -0.072309121 0
0.003596399 0.68558359 -0.060478553 0
0.010851797 0.68747115 -0.05473135 0
0.016283415 0.68707663 -0.050595317 0
0.024405468 0.68846267 -0.043587357 0
0.059821494 0.69476718 -0.015048126 0
0.07229875 0.69770753 -0.0046557831 0
0.071038768 0.69876909 -0.0057538045 0
0.083992064 0.69974929 0.0041881492 0
0.092564166 0.70182782 0.010992401 0
0.10243746 0.70405555 0.018685551 0
0.11182627 0.70496076 0.027105127 0
0.14349 0.7119931 0.052344799 0
-0.028588526 0.68136418 -0.08623708 0
-0.027164388 0.68220502 -0.08514633 0
-0.018861942 0.68374133 -0.079256378 0
0.028699033 0.69292182 -0.040100019 0
0.035457723 0.69291419 -0.034911126 0
0.034060284 0.69213778 -0.035941977 0
0.046121843 0.69455779 -0.026007259 0
0.051682074 0.69592071 -0.021641267 0
0.058844429 0.69786412 -0.016151343 0
0.06677448 0.69847143 -0.0092566917 0
0.081275001 0.70202625 0.0021556648 0
0.12878476 0.71045119 0.040692303 0
0.13756773 0.7129398 0.048249498 0
0.1402624 0.71246397 0.05044286 0
0.17967698 0.71870613 0.080614619 0
0.20185013 0.72315085 0.094239227 0
-0.028522084 0.68324083 -0.086208515 0
0.051813338 0.69789392 -0.02162833 0
0.068273902 0.7014159 -0.0081539247 0
0.094953939 0.70590746 0.013579657 0
0.10732971 0.70824844 0.022682093 0
0.14902455 0.71588558 0.056540806 0
-0.028220154 0.68514872 -0.086028986 0
0.021856487 0.69490367 -0.045894243 0
0.052028369 0.69987077 -0.021630349 0
0.075660415 0.70418262 -0.0018514713 0
0.077323809 0.70496625 -0.00086462556 0
0.20138022 0.72457051 0.078296728 0
0.20453392 0.7243197 0.0800438 0
0.0025197715 0.69333762 -0.061749883 0
0.0076614805 0.69418371 -0.058064532 0
0.022327345 0.69708794 -0.045696646 0
0.025310624 0.69638705 -0.043728322 0
0.0496783 0.70244795 -0.023996422 0
0.1146138 0.71356177 0.02909651 0
-0.010417867 0.69303244 -0.07220763 0
0.006095048 0.69656718 -0.059072025 0
0.0078582317 0.6961773 -0.058134548 0
0.03412205 0.70160228 -0.036546703 0
0.035220444 0.70058054 -0.035351235 0
0.068881854 0.70734304 -0.0081140175 0
-0.021555476 0.69167554 -0.081351466 0
-0.011554822 0.69404602 -0.07332015 0
-0.0083554015 0.69415963 -0.070517182 0
0.0079211779 0.69819194 -0.058097653 0
0.027051389 0.70117879 -0.042061079 0
0.034063704 0.70360488 -0.036536593 0
0.035266407 0.7026431 -0.035335287 0
0.055320039 0.70583725 -0.019329377 0
0.07347326 0.71113688 -0.0044958172 0
0.12873434 0.71777999 0.023535876 0
-0.026610341 0.69429618 -0.085496098 0
-0.024117425 0.69359553 -0.083440453 0
-0.018201206 0.69497281 -0.078883827 0
-0.0108457 0.6963433 -0.073097996 0
-0.0050742216 0.69790965 -0.068405241 0
-0.0068189315 0.69695681 -0.069702625 0
-0.00091743469 0.69876379 -0.065244906 0
0.030995306 0.70383108 -0.038983054 0
0.033006653 0.70480484 -0.037783731 0
0.039392099 0.70532364 -0.032893911 0
0.041797552 0.7072134 -0.030343978 0
-0.026270544 0.69830978 -0.08562804 0
-0.016862528 0.70009166 -0.078022771 0
-0.0090778321 0.70137203 -0.071984492 0
0.0074958391 0.70346254 -0.05814876 0
0.03445426 0.70785171 -0.036831953 0
0.044946168 0.70963967 -0.029464277 0
0.065651089 0.71351308 -0.020898385 0
-0.02055122 0.70142031 -0.081219465 0
-0.021995405 0.7006377 -0.082142659 0
-0.016722975 0.70205063 -0.078068532 0
0.0050094388 0.705863 -0.05941546 0
0.013248947 0.70722055 -0.053653676 0
0.045281306 0.71162951 -0.039340556 0
-0.015389398 0.7030077 -0.07702475 0
-0.014039921 0.70397896 -0.075902946 0
-0.009844901 0.70443833 -0.073264159 0
0.019325271 0.70970875 -0.051699389 0
0.036343288 0.71153867 -0.039542027 0
0.043885954 0.71327233 -0.039275926 0
-0.0254003 0.70427012 -0.085607983 0
0.025754128 0.71347016 -0.047248077 0
-0.080624506 0.70942098 -0.039744452 0
-0.024007764 0.70512515 -0.084278211 0
-0.0013114121 0.71028036 -0.067045018 0
-0.08103554 0.71084535 -0.038885728 0
-0.002797462 0.71141309 -0.073054649 0
0.0080882013 0.71399969 -0.067569017 0
-0.019463133 0.71250045 -0.082706802 0
0.05255644 -0.3734557 0.23734677 0
0.054158188 -0.36941475 0.23777795 0
0.056501299 -0.37039652 0.24034782 0
0.034526072 -0.3663778 0.22494745 0
0.056723572 -0.36443141 0.23842672 0
0.055308811 -0.35720772 0.23444247 0
0.061341278 -0.34399828 0.23353338 0
0.078128636 -0.34298795 0.2449165 0
0.089181304 -0.33992189 0.25788093 0
0.075390279 -0.33580238 0.24174376 0
0.090922959 -0.33194986 0.25720659 0
0.087969832 -0.3278617 0.25178725 0
0.091033958 -0.32142419 0.2564064 0
0.091772184 -0.31790227 0.25731069 0
0.085415401 -0.30869624 0.25350165 0
0.021460496 -0.30531681 0.2258507 0
0.075161554 -0.30310073 0.24780433 0
0.07189434 -0.29961956 0.24807921 0
0.073541358 -0.30128109 0.24815096 0
0.059143379 -0.2964986 0.244736 0
0.068569742 -0.29492468 0.25136057 0
0.059520192 -0.28964636 0.25209183 0
0.098239779 -0.28931272 0.271139 0
0.04165528 -0.28266266 0.2433767 0
0.046389781 -0.28331843 0.24823794 0
0.047641709 -0.28117272 0.24795693 0
0.054311752 -0.27430627 0.25295722 0
0.062926576 -0.26455456 0.25569507 0
0.097362898 -0.25926918 0.27834243 0
0.094294637 -0.25664386 0.27690417 0
0.095887996 -0.25711876 0.27846819 0
0.080904588 -0.2519815 0.25710192 0
0.093629003 -0.25452349 0.27674481 0
0.0869423 -0.24731416 0.25082451 0
0.12072092 -0.20653871 0.19979355 0
0.13427249 -0.20789455 0.20684223 0
0.11397626 -0.20343655 0.19866136 0
0.13650414 -0.19443254 0.20115982 0
0.14217588 -0.19319829 0.20569696 0
0.14507824 -0.19333909 0.20849527 0
0.13436626 -0.19204593 0.19911917 0
0.15044399 -0.18245837 0.20841651 0
0.14142853 -0.17846969 0.20085123 0
0.14073208 -0.17472023 0.20034179 0
0.13323019 -0.16601166 0.1979239 0
0.15329748 -0.16402519 0.20762631 0
0.15356356 -0.1582475 0.20681414 0
0.15365201 -0.15602708 0.20662612 0
0.15500432 -0.15385319 0.20754181 0
0.15766287 -0.15412825 0.20969772 0
0.16407698 -0.14611527 0.21495707 0
0.16673943 -0.14625371 0.21790877 0
0.1510406 -0.14244218 0.20494303 0
0.1632641 -0.13849857 0.21349888 0
0.16798788 -0.13757981 0.21764581 0
0.16947469 -0.13297948 0.22015055 0
0.17111854 -0.13209185 0.22128898 0
0.17257088 -0.12863043 0.22252151 0
0.17337322 -0.12359878 0.22251159 0
0.14657226 -0.11691936 0.20698941 0
0.15155268 -0.11689045 0.20922248 0
0.17143567 -0.11742716 0.22010297 0
0.17014462 -0.11625513 0.21885026 0
0.17156756 -0.11527684 0.22019354 0
0.10363652 -0.11566931 0.2335728 0
0.16065979 -0.11462633 0.21276969 0
0.17324468 -0.11425842 0.22106719 0
0.17962028 -0.11323803 0.22877735 0
0.16563922 -0.11167308 0.21511853 0
0.096766941 -0.11322409 0.23004647 0
0.097774625 -0.11176249 0.23121747 0
0.16425262 -0.10534275 0.2143071 0
0.10706963 -0.10478279 0.2386433 0
0.091250926 -0.10281494 0.23029664 0
0.093132444 -0.10292126 0.23149291 0
0.16598424 -0.099659294 0.21490292 0
0.1819855 -0.098251715 0.22711422 0
0.072047442 -0.098411098 0.22212072 0
0.17194843 -0.095205009 0.21824601 0
0.1734525 -0.096398354 0.21898177 0
0.17731749 -0.096349165 0.2223594 0
0.17988098 -0.092571616 0.2241369 0
0.1632558 -0.088740662 0.21361421 0
0.18252257 -0.087940313 0.22548047 0
0.18891309 -0.087496817 0.23270163 0
0.16319163 -0.085390635 0.21382296 0
0.078434408 -0.087383524 0.23264952 0
0.081482716 -0.08653003 0.23597075 0
0.10802168 -0.087357804 0.241428 0
0.18673995 -0.084770873 0.22997862 0
0.1881209 -0.084039479 0.23153907 0
0.07813099 -0.084972009 0.23504978 0
0.17291847 -0.081124693 0.21822132 0
0.18057188 -0.080735169 0.22337288 0
0.18739951 -0.08257474 0.22934271 0
0.16887471 -0.078706324 0.21579197 0
0.16974573 -0.077069439 0.21666548 0
0.17208838 -0.078085527 0.21811831 0
0.1809238 -0.076496027 0.22295183 0
0.18808742 -0.076033406 0.22960816 0
0.18508328 -0.068088554 0.22553237 0
0.19574331 -0.06648843 0.23544107 0
0.098294064 -0.067789271 0.24517226 0
0.11971404 -0.067432836 0.25416037 0
0.17746143 -0.063135043 0.22028692 0
0.17127666 -0.061004847 0.21770887 0
0.17413482 -0.059881549 0.21971799 0
0.18588594 -0.055257481 0.22475462 0
0.19395533 -0.055657975 0.2309562 0
0.19413655 -0.050685618 0.23170209 0
0.18754323 -0.050271261 0.22550102 0
0.1992428 -0.048098315 0.23584412 0
0.18789938 -0.045364473 0.22620161 0
0.20154601 -0.029929155 0.22991559 0
0.13550153 -0.029401731 0.26457685 0
0.14235613 -0.027950641 0.27037019 0
0.14429277 -0.027473167 0.27024332 0
0.1400512 -0.026554447 0.26364747 0
0.20853984 -0.019157562 0.23149765 0
0.20721829 -0.011587302 0.22722831 0
0.1428816 -0.010396076 0.25792399 0
0.18912081 -0.002709223 0.21437995 0
0.20771667 0.0016919412 0.22410159 0
0.20125061 0.012128291 0.21524997 0
0.14399612 0.01040432 0.25125524 0
0.20878866 0.014267285 0.22218956 0
0.20443036 0.021181026 0.21664861 0
0.082321256 0.020288892 0.1695323 0
-0.035027556 0.021985818 0.069125317 0
0.12415168 0.023005461 0.23180452 0
-0.027713247 0.023713915 0.073412083 0
0.015800759 0.022655373 0.11963685 0
0.20466352 0.030896597 0.21582842 0
0.017473407 0.029620534 0.11132589 0
-0.01710473 0.031477019 0.07617379 0
-0.011520129 0.030370403 0.082522228 0
-0.0059386529 0.030703055 0.08700525 0
0.011143431 0.031072341 0.10387182 0
0.03987588 0.032299422 0.13228451 0
0.13881019 0.0339325 0.23107569 0
-0.037068978 0.032508332 0.059758026 0
-0.025068484 0.032845214 0.068671852 0
-0.0082121044 0.032302402 0.083768137 0
-0.0067094155 0.034160916 0.083742708 0
0.017069161 0.035165913 0.10567204 0
0.047305621 0.036058992 0.13609079 0
0.20406783 0.040195119 0.21399257 0
-0.040052362 0.036772005 0.055908367 0
-0.032874331 0.03703798 0.060449097 0
0.014900729 0.036755051 0.10194734 0
0.088648908 0.037848812 0.15754668 0
0.13858411 0.038435988 0.22793184 0
0.016809382 0.040014639 0.10169784 0
0.08490143 0.040813863 0.15086764 0
0.1092572 0.040707324 0.1770277 0
0.13396668 0.040257823 0.22396061 0
