# .PCD v0.7 - Point Cloud Data file format
VERSION 0.7
FIELDS x y z intensity
SIZE 4 4 4 4
TYPE F F F F
COUNT 1 1 1 1
WIDTH 1322
HEIGHT 1
VIEWPOINT 0 0 0 1 0 0 0
POINTS 1322
DATA ascii
-0.04876174 0.24062188 0.1492743 0
-0.17553115 0.24197292 0.23094201 0
-0.14627072 0.24427392 0.23048198 0
-0.093210697 0.24270624 0.17453732 0
-0.086786337 0.24575911 0.15769836 0
-0.070357099 0.24842644 0.13525055 0
-0.069164202 0.25377911 0.12861402 0
-0.13068143 0.25842187 0.23768967 0
-0.10222672 0.25647908 0.16711068 0
-0.073396698 0.25625417 0.12713371 0
-0.12677063 0.26101577 0.2283003 0
-0.12135883 0.26405352 0.2121727 0
-0.13658716 0.26668924 0.21211132 0
-0.13353553 0.33914077 0.075857759 0
-0.088830546 0.34761387 0.025280006 0
-0.1350015 0.35570434 0.079475768 0
-0.15663418 0.38990799 0.073556431 0
-0.057354681 -0.33006537 0.26998392 0
-0.0056037977 -0.26862153 0.35195118 0
-0.0043902397 -0.1402263 0.28809831 0
0.003653653 -0.13626435 0.28689727 0
-0.0071729943 -0.13404885 0.29170701 0
-0.013832074 -0.13054988 0.2966232 0
-0.010589369 -0.12707275 0.29762039 0
-0.0049305409 -0.12660293 0.29530105 0
0.02017656 -0.089219615 0.44499329 0
0.017240994 -0.075046152 0.455163 0
0.019771904 -0.074359447 0.45471245 0
0.030816428 -0.073845491 0.45188507 0
0.036885746 -0.051186476 0.45051104 0
0.014363922 -0.043479543 0.44893074 0
0.019844465 -0.039157953 0.44694838 0
0.024313666 -0.036608946 0.44529667 0
0.029006332 -0.034504924 0.44667742 0
0.012259617 -0.031117903 0.44804651 0
0.011005923 -0.029393921 0.44818413 0
0.015950233 -0.027346645 0.44664773 0
0.012096055 -0.017381698 0.44643313 0
0.015763633 -0.017345402 0.44498348 0
0.010195188 -0.010048028 0.44635415 0
0.013758332 -0.0083627515 0.44565895 0
0.016744308 -0.0089174807 0.44424859 0
0.0062061772 0.012398516 0.44527113 0
0.032929368 0.0083594145 0.27136898 0
-0.079867423 -0.0071903463 0.059295937 0
-0.076579623 -0.0037246677 0.055097505 0
-0.080888622 -0.0020774696 0.05593805 0
-0.079987317 0.014287352 0.046287656 0
-0.023913566 0.046431195 0.34727636 0
-0.084000215 0.01997849 0.047054831 0
-0.026464581 0.050262772 0.34088838 0
-0.028822973 0.051770177 0.33990982 0
-0.026232507 0.051386088 0.33826306 0
-0.040603131 0.061632089 0.32863146 0
-0.025640033 0.061979473 0.31954065 0
-0.08126495 0.038700409 0.045802973 0
-0.045476027 0.064470656 0.32670918 0
-0.035185996 0.064137734 0.32040098 0
-0.028251354 0.066529758 0.31414962 0
-0.0068918355 0.067852251 0.31006831 0
-0.058011018 0.069007605 0.32633168 0
-0.055638425 0.070199534 0.32205757 0
-0.04956647 0.070495494 0.31708938 0
-0.026135787 0.071966134 0.30720961 0
-0.065055378 0.072316021 0.32475269 0
-0.057659023 0.073312245 0.31702992 0
-0.067486465 0.07373473 0.32366848 0
-0.058862027 0.080286317 0.30603471 0
-0.078042388 0.07971482 0.31975171 0
-0.068120055 0.082531378 0.3070654 0
-0.076918237 0.085698135 0.30638057 0
-0.068211585 0.085215487 0.30273369 0
0.0045830533 0.092595041 0.29300165 0
-0.084383771 0.086474709 0.31092495 0
-0.051657293 0.08885105 0.29366097 0
-0.084567875 0.088514283 0.30560139 0
-0.088682204 0.088951692 0.30940798 0
-0.089489564 0.092674121 0.30152747 0
-0.093871176 0.095007531 0.29983655 0
-0.084373929 0.095757276 0.29426888 0
-0.10424932 0.096207827 0.3078534 0
-0.086581752 0.09710677 0.29347411 0
-0.070230126 0.09902925 0.28641561 0
-0.056635626 0.10151011 0.28229323 0
-0.052639429 0.10111251 0.28168014 0
-0.1022062 0.10028065 0.29680675 0
-0.093612924 0.099345319 0.29288924 0
-0.091250442 0.10086586 0.28968188 0
-0.11218351 0.101569 0.30463624 0
-0.10626065 0.10293994 0.29535642 0
-0.069480762 0.1075807 0.27879637 0
-0.051101476 0.10907643 0.27466431 0
-0.11439577 0.10580147 0.2967169 0
-0.075668007 0.10897139 0.27869228 0
-0.060808644 0.11089292 0.27422604 0
-0.06236105 0.11350928 0.27309307 0
-0.11012353 0.11041073 0.2844471 0
-0.10410352 0.10994769 0.28262439 0
-0.08163932 0.11316749 0.27544039 0
-0.11968006 0.11181542 0.28978968 0
-0.11804833 0.11408478 0.28403971 0
-0.037152607 0.11526231 0.18959521 0
-0.11853893 0.1179234 0.27762619 0
-0.11657247 0.11965188 0.27450907 0
-0.1181826 0.12068903 0.27380294 0
-0.13567233 0.12117474 0.29063588 0
-0.12061718 0.12330718 0.27144518 0
-0.13151313 0.12496817 0.2762661 0
-0.12801674 0.12514135 0.2729499 0
-0.12432925 0.12422097 0.27222812 0
-0.11127888 0.12598534 0.26546133 0
-0.035704568 0.12933762 0.18764855 0
-0.12800953 0.12646961 0.27122092 0
-0.12448588 0.12700735 0.26860777 0
-0.13500583 0.12880948 0.27361602 0
-0.12605399 0.12923005 0.26675597 0
-0.11876447 0.12989651 0.26345167 0
-0.12984219 0.13440835 0.26259857 0
-0.12230961 0.13648362 0.25829607 0
-0.048787653 0.14384842 0.22737226 0
-0.14401011 0.13523442 0.27087328 0
-0.13539487 0.13641024 0.26266631 0
-0.14386228 0.1380592 0.26656461 0
-0.13138601 0.13831152 0.25902095 0
-0.048989832 0.14680161 0.22685567 0
-0.045816749 0.14787447 0.22521214 0
-0.14059439 0.13991812 0.26156306 0
-0.13557652 0.13925053 0.25944453 0
-0.13308281 0.13929203 0.25861496 0
-0.11924775 0.14274512 0.25328988 0
-0.14601587 0.14308181 0.26129988 0
-0.14055525 0.14543246 0.25544488 0
-0.12660775 0.14674138 0.25051352 0
-0.054971755 0.15865964 0.22546709 0
-0.15237747 0.14886828 0.25809675 0
-0.050956875 0.16609085 0.25241229 0
-0.051793139 0.16313243 0.22320004 0
-0.058890067 0.16677716 0.25379616 0
-0.15099412 0.15469395 0.2501421 0
-0.14915691 0.15633579 0.2478427 0
-0.15827228 0.15839215 0.25018558 0
-0.1534986 0.16056173 0.24507669 0
-0.15837719 0.16126038 0.24679704 0
-0.15341032 0.16198984 0.24365515 0
-0.14593121 0.16346832 0.24057728 0
-0.15183985 0.1654858 0.24002594 0
-0.058496617 0.18051729 0.2449819 0
-0.053858198 0.17884178 0.21977349 0
-0.055347655 0.18396336 0.218687 0
-0.048354644 0.18093462 0.18498884 0
-0.16503042 0.16986331 0.24115317 0
-0.16019787 0.17071448 0.23780282 0
-0.05320755 0.18484637 0.21751377 0
-0.037285767 0.18346412 0.17676291 0
-0.16491552 0.17103368 0.23964217 0
-0.15842745 0.17261919 0.23573609 0
-0.16012813 0.17360193 0.2353581 0
-0.16999675 0.17581178 0.23787592 0
-0.1585435 0.17725451 0.23196521 0
-0.057885457 0.19159679 0.21639457 0
-0.057675518 0.19171342 0.2161831 0
-0.17284183 0.1769487 0.23911637 0
-0.1617648 0.17760475 0.23258807 0
-0.15853103 0.17880273 0.23090489 0
-0.055565048 0.193336 0.21489331 0
-0.044158153 0.19176325 0.17825806 0
-0.037947737 0.19232754 0.17495334 0
-0.066666476 0.1966238 0.23806086 0
-0.038898103 0.19373578 0.17477442 0
-0.17211175 0.17934689 0.2357247 0
-0.059035022 0.19637088 0.21450163 0
-0.058969282 0.19633481 0.21463764 0
-0.16292831 0.18485789 0.22760911 0
-0.17224735 0.18486129 0.23062365 0
-0.16454601 0.18578824 0.22731917 0
-0.058849536 0.20124947 0.21253648 0
-0.040564731 0.20113669 0.17375024 0
-0.044418942 0.20245275 0.17543595 0
-0.073864125 0.20572625 0.23849753 0
-0.059753254 0.20601697 0.21096714 0
-0.16907276 0.19048093 0.22534847 0
-0.073929317 0.20736337 0.23690972 0
-0.17252688 0.19043772 0.2266029 0
-0.17190537 0.19180995 0.22562377 0
-0.046231065 0.20733273 0.17523304 0
-0.171277 0.19476041 0.22368607 0
-0.16835131 0.19742602 0.22171743 0
-0.041690692 0.21507014 0.17189163 0
-0.17465416 0.19874656 0.22246484 0
-0.071312256 0.21603703 0.20999849 0
-0.18698397 0.1995495 0.23086965 0
-0.171381 0.20161733 0.22052598 0
-0.080396421 0.21893832 0.23398294 0
-0.17256738 0.20592634 0.21952514 0
-0.17067741 0.20602517 0.21931665 0
-0.077784449 0.22446327 0.22495887 0
-0.074611269 0.22634441 0.22207685 0
-0.07327687 0.22393464 0.20647979 0
-0.041752692 0.22599731 0.16916387 0
-0.17810313 0.20952997 0.2203081 0
-0.074561246 0.22777204 0.20377734 0
-0.17296575 0.21256201 0.21860626 0
-0.086360246 0.22967565 0.23444909 0
-0.075792797 0.22925325 0.20324831 0
-0.077415787 0.23202355 0.21893437 0
-0.077312395 0.23055267 0.20316693 0
-0.077377006 0.23059508 0.20315787 0
-0.17269948 0.21566941 0.21849826 0
-0.058610361 0.23176168 0.16410336 0
-0.056006957 0.23481585 0.15955943 0
-0.083643466 0.23740537 0.21739481 0
-0.052787773 0.23783566 0.15429007 0
-0.090463035 0.24207909 0.21122587 0
-0.095356986 0.24239241 0.2097521 0
-0.093327641 0.24159627 0.20750999 0
-0.094426848 0.24156983 0.19949731 0
-0.090723336 0.24164437 0.19624388 0
-0.099073887 0.24366726 0.20784415 0
-0.054769576 0.24617589 0.15547019 0
-0.043552071 0.24677347 0.14608443 0
-0.099886194 0.24690983 0.22809374 0
-0.044409551 0.24827759 0.14639494 0
-0.10464671 0.24711162 0.2167256 0
-0.078228354 0.2464837 0.14624223 0
-0.071494862 0.24727346 0.13927674 0
-0.11605833 0.2543647 0.23137306 0
-0.081272528 0.25127143 0.14229743 0
-0.11389172 0.25645331 0.21133673 0
-0.068897873 0.25587121 0.12626344 0
-0.1267588 0.25999022 0.2335503 0
-0.067530498 0.25853541 0.12264211 0
-0.081647933 0.25943774 0.13369291 0
-0.12961917 0.26328096 0.22628476 0
-0.12058634 0.26478457 0.20884515 0
-0.10737103 0.26392823 0.15660235 0
-0.095975503 0.26403683 0.13647982 0
-0.16446736 0.26275197 0.22241579 0
-0.16397096 0.26570821 0.23010352 0
-0.17770144 0.2660633 0.24921027 0
-0.12407886 0.26499811 0.13445166 0
-0.12738916 0.26562339 0.13235301 0
-0.10813363 0.2642113 0.072328083 0
-0.11280586 0.26338062 0.064026803 0
-0.15192433 0.26551813 0.12457795 0
-0.13828632 0.26444656 0.093174353 0
-0.18832192 0.2657851 0.17323689 0
-0.2074402 0.26542169 0.18589926 0
-0.19008122 0.26723048 0.16573189 0
-0.16601741 0.26744893 0.12716827 0
-0.16649806 0.26808521 0.12565142 0
-0.19232769 0.26866353 0.16176926 0
-0.18996646 0.26936132 0.15394312 0
-0.067987084 0.344349 -0.0061336085 0
-0.064773813 0.34935665 -0.009123032 0
-0.138153 0.34732044 0.080004595 0
-0.093905486 0.35526755 0.030086149 0
-0.090979472 0.35543886 0.024938084 0
-0.13880175 0.35569635 0.057130422 0
-0.15287116 0.35699204 0.07444068 0
-0.24392918 0.35341272 0.20901208 0
-0.19171019 0.35923001 0.15051632 0
-0.23347168 0.35883707 0.19719744 0
-0.23060215 0.36129448 0.19622438 0
-0.10635857 0.68221015 -0.0096539743 0
-0.12415201 0.68606377 0.01134612 0
-0.32369208 0.69416708 0.24954626 0
-0.019600891 -0.27530715 0.38764217 0
-0.0070202649 -0.12444755 0.29779243 0
0.03536465 -0.11109895 0.24814324 0
0.041236036 -0.10963156 0.24530719 0
0.018409416 -0.034827255 0.44634485 0
-0.08126577 -0.011307851 0.064129278 0
-0.076575793 -0.0037393004 0.055113137 0
-0.078022137 0.00016171072 0.052878737 0
-0.018930964 0.048446361 0.33879662 0
-0.078295559 0.011701036 0.046393398 0
-0.078537375 0.01429474 0.045720268 0
-0.020747915 0.055524632 0.32763094 0
-0.030997615 0.057083692 0.33017984 0
-0.020823509 0.057109661 0.32520571 0
-0.033441462 0.058485407 0.32911298 0
-0.030932844 0.061612502 0.32224369 0
-0.078220241 0.026261184 0.044822101 0
-0.022917856 0.063827567 0.31622365 0
-0.013728537 0.064043306 0.31432271 0
-0.075891346 0.027678723 0.044478506 0
-0.040243287 0.065382645 0.32112062 0
-0.080510758 0.028580246 0.045684237 0
-0.047373123 0.068150848 0.32033879 0
-0.032792386 0.067172192 0.31480443 0
-0.030474443 0.067577288 0.31342202 0
-0.018250879 0.068875633 0.30948028 0
-0.076636404 0.036067903 0.044480734 0
-0.015534434 0.073438644 0.30509695 0
-0.0068736672 0.073775649 0.30541608 0
-0.010686085 0.075701989 0.30297989 0
-0.078201383 0.038748972 0.044632349 0
-0.046176266 0.076385081 0.30716175 0
-0.012686763 0.078647263 0.30043009 0
-0.022974387 0.078807592 0.29985559 0
-0.015404649 0.079583466 0.29943869 0
-0.031412583 0.080983743 0.29813486 0
-0.038279787 0.082118943 0.29792354 0
-0.033687551 0.08198186 0.29750514 0
-0.013219468 0.082549982 0.29617631 0
-0.02902779 0.083430655 0.29570776 0
-0.022680134 0.084576398 0.29445827 0
-0.049482226 0.084484659 0.29786262 0
-0.025194924 0.085238516 0.2938565 0
-0.05670701 0.084649414 0.2996057 0
-0.051656246 0.08552701 0.29720283 0
-0.020552043 0.087439604 0.29135036 0
-0.039311267 0.08811719 0.2920298 0
-0.015800558 0.08951059 0.28983688 0
-0.083470196 0.053440098 0.050778877 0
-0.065999374 0.088382691 0.29719085 0
-0.053771578 0.089551829 0.29323837 0
-0.04584093 0.091272645 0.29005626 0
-0.031008024 0.097701289 0.2822659 0
-0.05255048 0.097670294 0.28496173 0
-0.050612461 0.098443754 0.28361189 0
-0.048247986 0.097232133 0.28432223 0
-0.037843354 0.099078387 0.28136981 0
-0.06495256 0.098666146 0.28586647 0
-0.058669649 0.099134363 0.28449845 0
-0.0403919 0.10202506 0.27906236 0
-0.075763516 0.10087598 0.2860288 0
-0.042463742 0.103148 0.27832812 0
-0.031233571 0.10368355 0.27750757 0
-0.059247512 0.10409821 0.28007492 0
-0.056794949 0.10322735 0.28060013 0
-0.067438692 0.10503615 0.28076369 0
-0.05924366 0.10589013 0.27831405 0
-0.044768512 0.1078613 0.27489364 0
-0.067884624 0.076812193 0.066241801 0
-0.079837285 0.10598709 0.28170386 0
-0.071765572 0.10677613 0.27945459 0
-0.048842959 0.10823546 0.27533841 0
-0.07132607 0.10846624 0.27822822 0
-0.069624156 0.1108283 0.2760542 0
-0.052759066 0.11202429 0.27279842 0
-0.097092435 0.110126 0.28020996 0
-0.062433362 0.11186631 0.27403671 0
-0.040694337 0.11460081 0.27050242 0
-0.029564947 0.11501522 0.27351201 0
-0.1063183 0.11105088 0.28174129 0
-0.071938239 0.11332845 0.27427 0
-0.046728291 0.11461609 0.27053475 0
-0.10640538 0.11235925 0.28010097 0
-0.091695443 0.11368313 0.27598584 0
-0.083538748 0.11421185 0.27498996 0
-0.079790622 0.11545472 0.27335525 0
-0.049568649 0.11817271 0.26863977 0
-0.085450426 0.11668474 0.2729516 0
-0.050836429 0.11967923 0.26797667 0
-0.049263466 0.11962011 0.26755071 0
-0.052740511 0.12121891 0.26717001 0
-0.04907582 0.1240299 0.26540944 0
-0.043770276 0.1235667 0.26550218 0
-0.097394697 0.11978139 0.27039137 0
-0.044685602 0.12538789 0.2649017 0
-0.091330573 0.12234499 0.26827484 0
-0.073567733 0.12400372 0.26685795 0
-0.068237983 0.12545076 0.26539353 0
-0.036723934 0.11735914 0.19007878 0
-0.10697729 0.12269418 0.2690019 0
-0.10103649 0.12318841 0.26812869 0
-0.11301094 0.12387986 0.26829198 0
-0.074702196 0.12707762 0.26495364 0
-0.093882337 0.12630819 0.26504073 0
-0.04529994 0.1310578 0.26226309 0
-0.064061403 0.1320529 0.26166016 0
-0.052136954 0.13226421 0.26208186 0
-0.084514305 0.13141932 0.26161149 0
-0.045508862 0.13507567 0.26142141 0
-0.064222559 0.13533196 0.26042283 0
-0.11510221 0.13109419 0.26167789 0
-0.10887236 0.13087124 0.26113048 0
-0.067938924 0.13530122 0.26058167 0
-0.043854713 0.13857894 0.26055378 0
-0.09650068 0.13397321 0.25853312 0
-0.12245224 0.13342604 0.26118201 0
-0.10885958 0.13416937 0.25860283 0
-0.10538669 0.13395457 0.25858608 0
-0.096461341 0.13565294 0.2575953 0
-0.10534477 0.1355927 0.25739264 0
-0.031861015 0.13404639 0.1864751 0
-0.079302445 0.14122693 0.25666133 0
-0.067894533 0.14299357 0.25713894 0
-0.11401203 0.13838273 0.25586388 0
-0.050159648 0.14619716 0.25870937 0
-0.034943346 0.13723838 0.18597545 0
-0.11752664 0.14028297 0.25497526 0
-0.11586297 0.13940059 0.25532642 0
-0.033744842 0.13877879 0.18579112 0
-0.13138434 0.13985756 0.25765973 0
-0.12117696 0.14032851 0.25501788 0
-0.088341057 0.14451738 0.25306243 0
-0.032901011 0.14030264 0.18546309 0
-0.1210995 0.14194755 0.25388345 0
-0.10838007 0.14397499 0.25172824 0
-0.1122185 0.14393932 0.25180781 0
-0.11139442 0.14534193 0.25079709 0
-0.13344333 0.14426729 0.25426495 0
-0.12634082 0.14524564 0.2518726 0
-0.13158843 0.14635807 0.25203875 0
-0.091661938 0.15033662 0.24996062 0
-0.12494841 0.14746225 0.24991091 0
-0.11831433 0.14910382 0.24868657 0
-0.054744486 0.15714535 0.25591168 0
-0.050510891 0.15422072 0.22514836 0
-0.10627516 0.15159859 0.24778667 0
-0.035390183 0.15074165 0.18403219 0
-0.12152532 0.15239337 0.24670255 0
-0.12638108 0.15318218 0.24639669 0
-0.10032403 0.15780057 0.24548684 0
-0.12492131 0.15715322 0.24363326 0
-0.11856098 0.15946068 0.24271265 0
-0.1501655 0.16298918 0.24170595 0
-0.11833273 0.16663246 0.23887821 0
-0.14197135 0.16643935 0.23790513 0
-0.13867989 0.16806945 0.23675814 0
-0.15029046 0.16901465 0.23659952 0
-0.13130234 0.17183729 0.23493309 0
-0.1334545 0.17466693 0.23325647 0
-0.036103278 0.17906904 0.17766164 0
-0.14657643 0.17424893 0.2329752 0
-0.14977473 0.17426965 0.23314436 0
-0.16015083 0.17508899 0.23401764 0
-0.15681951 0.1794493 0.23023176 0
-0.15187374 0.17993973 0.22951564 0
-0.067499384 0.19714564 0.24912825 0
-0.060708888 0.19170532 0.21768764 0
-0.13906772 0.18514195 0.22772284 0
-0.15238228 0.18569244 0.22638553 0
-0.14767396 0.18522523 0.22705798 0
-0.058040358 0.19788185 0.21396282 0
-0.15600225 0.18567696 0.22639756 0
-0.1486918 0.18663846 0.22625835 0
-0.15240744 0.18856215 0.22490765 0
-0.037456691 0.1967351 0.17350733 0
-0.153303 0.19000328 0.22418797 0
-0.14493051 0.19152434 0.2244865 0
-0.073198691 0.20490515 0.24209833 0
-0.15838748 0.18983153 0.22440754 0
-0.15654565 0.18986613 0.22441301 0
-0.15494491 0.19227691 0.22325513 0
-0.074853107 0.2097372 0.24215496 0
-0.035626918 0.2041032 0.17157628 0
-0.075443104 0.21087407 0.24444883 0
-0.16488709 0.19748545 0.22115383 0
-0.034882881 0.20858039 0.17046499 0
-0.16759765 0.19885615 0.2210069 0
-0.15604426 0.19906235 0.22076087 0
-0.16593197 0.20169058 0.21976519 0
-0.080380529 0.21865268 0.24133135 0
-0.16505921 0.20316216 0.21928853 0
-0.16207649 0.20348419 0.21916811 0
-0.064315692 0.21753852 0.20770036 0
-0.16790631 0.20456013 0.21909115 0
-0.16296726 0.20800735 0.21823525 0
-0.055273421 0.21829851 0.17815156 0
-0.05547031 0.2196994 0.17674606 0
-0.049564388 0.22293349 0.17307435 0
-0.167409 0.21271989 0.21791796 0
-0.055871792 0.22646634 0.16891935 0
-0.16819507 0.21726695 0.21794331 0
-0.17249611 0.21794921 0.21858427 0
-0.082942806 0.23385508 0.22029579 0
-0.080739945 0.23362333 0.21977486 0
-0.079140261 0.23424424 0.21894564 0
-0.16899194 0.22078541 0.21822345 0
-0.032226972 0.23317342 0.16307996 0
-0.093548946 0.23968326 0.24095568 0
-0.053780667 0.23133481 0.16210745 0
-0.161211 0.22427507 0.21933408 0
-0.14696252 0.22965999 0.22356106 0
-0.17414993 0.22627085 0.22088465 0
-0.071953937 0.23817132 0.17527606 0
-0.08100526 0.24149774 0.1948135 0
-0.16637594 0.23327717 0.22193366 0
-0.04786773 0.24290335 0.14808701 0
-0.087256461 0.2458885 0.19416451 0
-0.16923085 0.25485247 0.23943321 0
-0.11452542 0.26109824 0.20910995 0
-0.15822975 0.26255628 0.23962636 0
-0.070431828 0.25673804 0.12576163 0
-0.070228353 0.26270923 0.12074277 0
-0.084434584 0.26339135 0.12847716 0
-0.079602629 0.26353899 0.12392005 0
-0.075261325 0.26419613 0.11884958 0
-0.085034236 0.26436016 0.12209222 0
-0.082527727 0.26421598 0.12225057 0
-0.17484972 0.26590374 0.21714935 0
-0.18484901 0.26648352 0.16648911 0
-0.21231027 0.26600307 0.18623766 0
-0.18275353 0.26807457 0.15243183 0
-0.18366881 0.26749244 0.15192239 0
-0.16201591 0.26647118 0.12750427 0
-0.10949393 0.26380965 0.060172118 0
-0.19094828 0.26941571 0.1579628 0
-0.14060113 0.26725048 0.092335351 0
-0.042154945 0.34967181 -0.05164019 0
-0.14966767 0.35652244 0.087865673 0
-0.13453002 0.35437828 0.056060053 0
-0.1718604 0.35807943 0.097079955 0
-0.16222888 0.35777429 0.086228587 0
-0.31130722 0.69350624 0.26203218 0
-0.0099844635 -0.13402878 0.29332998 0
-0.078195989 0.020781813 0.044553775 0
-0.072985888 0.04597291 0.044106141 0
-0.079078116 0.054428142 0.048243426 0
-0.075869888 0.058502983 0.050260171 0
-0.082690716 0.10895193 0.27955702 0
-0.063896634 0.11299793 0.27431777 0
-0.064166084 0.1145421 0.27280515 0
-0.081048913 0.11791598 0.27188003 0
-0.074269727 0.121935 0.26863292 0
-0.10630836 0.11996663 0.27160743 0
-0.059700556 0.12591034 0.26504007 0
-0.051655501 0.12592077 0.26507431 0
-0.053096991 0.12739499 0.26404262 0
-0.051759202 0.12901966 0.26367754 0
-0.07153713 0.12813765 0.26467842 0
-0.062767692 0.13063517 0.2628592 0
-0.093780354 0.12962119 0.2628094 0
-0.074657537 0.13357288 0.26131836 0
-0.080274157 0.13494062 0.26027101 0
-0.11057398 0.13324066 0.25907192 0
-0.071828529 0.13970758 0.25873911 0
-0.055961914 0.14186001 0.25941369 0
-0.064504504 0.14157397 0.25808927 0
-0.10874134 0.13911998 0.25514826 0
-0.10517921 0.1381149 0.25571623 0
-0.098744705 0.14060315 0.2545203 0
-0.080479875 0.14267595 0.25568426 0
-0.098694682 0.14227894 0.25367045 0
-0.066601887 0.14818776 0.25586584 0
-0.10035676 0.14589798 0.25124359 0
-0.10421105 0.14871025 0.24937443 0
-0.089703396 0.15040071 0.25019911 0
-0.076150216 0.15130742 0.25279987 0
-0.10705176 0.15015689 0.2486545 0
-0.097397543 0.15022276 0.24925143 0
-0.06461031 0.15510529 0.2547186 0
-0.027509276 0.14864655 0.18435539 0
-0.087491512 0.15359864 0.24951732 0
-0.083636507 0.15405186 0.24995831 0
-0.098978363 0.15322253 0.24789061 0
-0.097584382 0.15363193 0.24775192 0
-0.092826836 0.15520447 0.24805777 0
-0.071870044 0.1577498 0.25189373 0
-0.11716662 0.15371923 0.24582031 0
-0.078112215 0.15734351 0.2504046 0
-0.062871061 0.16139247 0.25461149 0
-0.082479082 0.15877223 0.24871999 0
-0.084068187 0.15884745 0.24859282 0
-0.079716004 0.16044261 0.2493809 0
-0.076159082 0.16046706 0.24999018 0
-0.087976955 0.15928933 0.24732874 0
-0.081507489 0.16042802 0.24885887 0
-0.10677179 0.15918432 0.24405532 0
-0.028846599 0.15786256 0.1819012 0
-0.096995443 0.16256404 0.24431396 0
-0.029389128 0.15953168 0.18195309 0
-0.12392868 0.16083102 0.24142472 0
-0.11229186 0.16238342 0.24179016 0
-0.090530068 0.16423376 0.24536453 0
-0.062601037 0.16947764 0.25443453 0
-0.11315618 0.16380818 0.24092051 0
-0.1007264 0.1653035 0.24265884 0
-0.096712932 0.1656518 0.24345496 0
-0.089357339 0.1657894 0.24522318 0
-0.081543073 0.1667859 0.24708365 0
-0.095817924 0.16714269 0.24299498 0
-0.087253258 0.16864803 0.24518664 0
-0.070318542 0.17183056 0.25134945 0
-0.067100517 0.17346363 0.25199398 0
-0.08543092 0.17181696 0.24511157 0
-0.026599679 0.16882411 0.18070222 0
-0.12109171 0.1680624 0.23792791 0
-0.10152528 0.17166428 0.24014816 0
-0.098219901 0.17170511 0.2409018 0
-0.094628304 0.17175484 0.24180262 0
-0.090204954 0.17323731 0.24304949 0
-0.029169487 0.16913147 0.18023252 0
-0.023447286 0.17045686 0.18108314 0
-0.13139892 0.16894665 0.23642194 0
-0.11814418 0.16959853 0.23764604 0
-0.11353944 0.17112383 0.23785831 0
-0.083461456 0.1750263 0.24524422 0
-0.06694971 0.17849885 0.25223565 0
-0.11440524 0.17253871 0.23689972 0
-0.031067865 0.17205672 0.17926942 0
-0.11158104 0.17402896 0.23682807 0
-0.094404876 0.17797115 0.24092637 0
-0.090920083 0.17796908 0.24193238 0
-0.073495738 0.18139514 0.25005984 0
-0.032175273 0.17344464 0.17899263 0
-0.12781768 0.17354386 0.23425016 0
-0.12320459 0.17501022 0.23427299 0
-0.096219614 0.17789724 0.23990604 0
-0.13912605 0.17457251 0.23292476 0
-0.12675409 0.17500556 0.23372847 0
-0.11498502 0.17820403 0.234754 0
-0.10601781 0.17935283 0.23627989 0
-0.14497751 0.17636514 0.23176935 0
-0.11380185 0.17971313 0.2345551 0
-0.10395987 0.18252769 0.23619829 0
-0.13847461 0.17788206 0.2311662 0
-0.12380712 0.18098038 0.23193319 0
-0.12194809 0.18100771 0.23228471 0
-0.11485616 0.18109983 0.23364094 0
-0.10789259 0.18239759 0.23496136 0
-0.11031256 0.18399534 0.23391326 0
-0.10691486 0.18403836 0.23470634 0
-0.12733354 0.18385783 0.23029441 0
-0.11641597 0.18406971 0.2323703 0
-0.11549051 0.18556118 0.23203413 0
-0.032031223 0.18487689 0.17658637 0
-0.150644 0.18212759 0.2283823 0
-0.13092874 0.1838028 0.22956568 0
-0.1037935 0.18876702 0.23469216 0
-0.12713638 0.18687239 0.22939272 0
-0.1250914 0.18691035 0.22974597 0
-0.032717302 0.18925075 0.17526484 0
-0.030979853 0.18926917 0.17562516 0
-0.14199021 0.18655819 0.22683865 0
-0.14288169 0.18801671 0.2261578 0
-0.12654197 0.18999921 0.22819042 0
-0.11240952 0.1918724 0.23102763 0
-0.10898285 0.19184422 0.23188226 0
-0.10884753 0.1918672 0.23196521 0
-0.072444469 0.20181108 0.25538 0
-0.071350269 0.20112903 0.25371835 0
-0.036270276 0.19231123 0.17442033 0
-0.14658253 0.18790023 0.22556636 0
-0.12988424 0.19003147 0.22756526 0
-0.11811724 0.19477734 0.22890571 0
-0.11808801 0.19475971 0.2289187 0
-0.11620463 0.19479299 0.22933599 0
-0.11239949 0.19490212 0.2302909 0
-0.12159327 0.19472471 0.22820824 0
-0.034650259 0.19667387 0.17322496 0
-0.12975506 0.19612648 0.22616081 0
-0.11618868 0.19778709 0.22853664 0
-0.15152535 0.19453213 0.22249091 0
-0.14980237 0.19452408 0.22262456 0
-0.14190349 0.19606686 0.22366875 0
-0.11868314 0.19930232 0.22778486 0
-0.075545557 0.20795308 0.2470611 0
-0.14539248 0.19600941 0.22280738 0
-0.14369106 0.19602193 0.22320502 0
-0.12939817 0.19912845 0.22535631 0
-0.12940724 0.19914348 0.22536519 0
-0.16203058 0.19616126 0.22151937 0
-0.13655689 0.19909258 0.22378686 0
-0.13191885 0.20065732 0.22459055 0
-0.12838228 0.20071033 0.22537267 0
-0.11023567 0.20412567 0.22966258 0
-0.14092681 0.20066178 0.22272785 0
-0.13278472 0.20234871 0.22416213 0
-0.12575667 0.20225212 0.22560573 0
-0.11140909 0.20565124 0.22892173 0
-0.10933555 0.20580313 0.23001468 0
-0.15157701 0.20041415 0.22065569 0
-0.14971651 0.20046805 0.22095893 0
-0.12485396 0.20377904 0.22552235 0
-0.12401971 0.20528427 0.22533259 0
-0.081414849 0.21491246 0.24902916 0
-0.065505497 0.21019311 0.21110339 0
-0.15676861 0.20051537 0.22009103 0
-0.11959997 0.20693924 0.22605063 0
-0.031073879 0.20883124 0.17139441 0
-0.15117401 0.20368382 0.22007215 0
-0.14587741 0.20366679 0.22124438 0
-0.13537523 0.20693934 0.22321285 0
-0.13359159 0.20695017 0.22347796 0
-0.12658574 0.20680374 0.2246612 0
-0.13095282 0.20833173 0.2236806 0
-0.12143086 0.21001533 0.22540261 0
-0.14498357 0.20831071 0.22104551 0
-0.13185439 0.20986958 0.22342002 0
-0.12623292 0.21158803 0.22416814 0
-0.12251846 0.21158427 0.2250178 0
-0.11811677 0.21321172 0.22618026 0
-0.033720799 0.21302973 0.16941951 0
-0.14400908 0.20985882 0.22111747 0
-0.14224175 0.20986699 0.22133173 0
-0.1234285 0.21316889 0.22474575 0
-0.15716125 0.20824873 0.21883768 0
-0.15476871 0.20971768 0.2187949 0
-0.12432203 0.21476869 0.22457345 0
-0.11871748 0.21493441 0.22614492 0
-0.067090392 0.21966271 0.207747 0
-0.064604506 0.21951924 0.20817849 0
-0.12986694 0.21458091 0.22323886 0
-0.12511733 0.21641944 0.22450903 0
-0.15845388 0.21285333 0.21836545 0
-0.14188062 0.21479802 0.22157612 0
-0.13614446 0.21510202 0.22229332 0
-0.16181013 0.21282169 0.21815106 0
-0.15742111 0.21448255 0.21859223 0
-0.15570393 0.2145344 0.21900931 0
-0.14498447 0.216315 0.22110006 0
-0.12509495 0.21981977 0.22449645 0
-0.16188073 0.21600866 0.21817623 0
-0.14955357 0.21949901 0.22075348 0
-0.12998724 0.22191846 0.2236191 0
-0.15856093 0.21935706 0.2189503 0
-0.13541067 0.22321588 0.22276531 0
-0.090916663 0.23347315 0.24136154 0
-0.15761134 0.22103566 0.21937808 0
-0.13448885 0.22489972 0.22323619 0
-0.092922248 0.2334723 0.24049963 0
-0.074155644 0.22971949 0.20231743 0
-0.053838335 0.22576191 0.17001647 0
-0.16029686 0.22263551 0.21922466 0
-0.13531418 0.22653192 0.22314519 0
-0.057588488 0.22596489 0.16969901 0
-0.046040755 0.22729424 0.16907628 0
-0.14314954 0.22630751 0.22284588 0
-0.12699243 0.2301324 0.22485942 0
-0.15292935 0.22631668 0.22215992 0
-0.13086991 0.23014528 0.2243437 0
-0.12890847 0.23014311 0.22455786 0
-0.053723097 0.23004924 0.16404265 0
-0.15444522 0.22801316 0.22256343 0
-0.040727817 0.23258521 0.16411862 0
-0.14186488 0.23138504 0.22353624 0
-0.032291397 0.23594749 0.16177131 0
-0.029137909 0.23609555 0.16218776 0
-0.1663166 0.22970568 0.22052142 0
-0.13625242 0.23502009 0.22462445 0
-0.13206381 0.23508826 0.22527145 0
-0.15342632 0.23347692 0.2256135 0
-0.13998836 0.236495 0.22456867 0
-0.13320617 0.23676369 0.22555789 0
-0.12998165 0.23865709 0.22690172 0
-0.14098769 0.23837471 0.22562516 0
-0.073994726 0.23760779 0.17631733 0
-0.076169446 0.23816 0.17511666 0
-0.076120287 0.24057159 0.17039385 0
-0.16556877 0.24049014 0.22660987 0
-0.15433908 0.24461794 0.23243335 0
-0.081461705 0.24130648 0.16779333 0
-0.13086887 0.24981424 0.23236118 0
-0.15046281 0.25586346 0.24310242 0
-0.042878337 0.25053585 0.144389 0
-0.15410526 0.26363039 0.23723102 0
-0.061556157 0.25396097 0.12094955 0
-0.17055407 0.26553521 0.21214882 0
-0.071588486 0.26500523 0.1101713 0
-0.21563289 0.26600546 0.18975399 0
-0.19568017 0.3586086 0.13145243 0
-0.19349959 0.35892567 0.1296778 0
-0.079788819 0.35243773 0.007150982 0
-0.033725664 0.34974089 -0.051084056 0
-0.0021915622 0.050184514 0.08690618 0
0.093542024 0.070445009 0.13926731 0
-0.078185722 0.16670217 0.24784425 0
-0.071543872 0.16981506 0.25058383 0
-0.07808771 0.17196092 0.24808086 0
-0.022579554 0.17795488 0.18060169 0
-0.079362221 0.18504506 0.24728706 0
-0.024607766 0.18345298 0.17942251 0
-0.023677964 0.18223573 0.18029065 0
-0.090606056 0.18987322 0.24033023 0
-0.086810052 0.19694801 0.24254966 0
-0.030062091 0.19078109 0.17552783 0
-0.027247444 0.19232693 0.17638774 0
-0.086834863 0.20033027 0.24314857 0
-0.030431977 0.19530593 0.17452282 0
-0.029623009 0.19683759 0.17458695 0
-0.10930755 0.1997941 0.23042721 0
-0.030087875 0.2012755 0.17309038 0
-0.029275009 0.20285621 0.17325197 0
-0.10111922 0.20717129 0.233823 0
-0.027009485 0.20431349 0.17383015 0
-0.11248966 0.20723887 0.22840367 0
-0.10843989 0.20744114 0.23023418 0
-0.10664953 0.20745365 0.23094629 0
-0.086772606 0.2142202 0.24981183 0
-0.11484337 0.20854284 0.22732224 0
-0.1124403 0.2105549 0.22843379 0
-0.096369117 0.21284802 0.23710132 0
-0.086529016 0.21911187 0.24828927 0
-0.083577365 0.21893676 0.24635209 0
-0.031268023 0.21162777 0.17032734 0
-0.11304963 0.21499848 0.22827515 0
-0.028808435 0.2132072 0.17094906 0
-0.026505182 0.2147633 0.17195997 0
-0.12148499 0.21658656 0.2254124 0
-0.10383987 0.22055393 0.23396592 0
-0.11584268 0.22209187 0.22773302 0
-0.050664283 0.22928797 0.16634625 0
-0.027792182 0.23055632 0.16516158 0
-0.10737275 0.24033706 0.24429873 0
-0.16030596 0.23355404 0.22371717 0
-0.15864168 0.23807636 0.2271682 0
-0.035456933 0.23871756 0.15883636 0
-0.03214857 0.23876494 0.15955094 0
-0.12311149 0.24841127 0.23385698 0
-0.15418255 0.24695356 0.23408015 0
-0.16538385 0.24499379 0.22966102 0
-0.13855031 0.24981385 0.23203263 0
-0.04255975 0.24377051 0.14617574 0
-0.16078767 0.2483426 0.2335746 0
-0.060595773 0.25683108 0.12111782 0
-0.059882589 0.25841573 0.12164703 0
-0.063481651 0.25946724 0.11980072 0
-0.052864164 0.26397175 0.12686202 0
-0.05448946 0.26524749 0.12467839 0
-0.055769898 0.26632315 0.12307681 0
-0.051283356 0.26638439 0.12493616 0
-0.053462341 0.26738766 0.12181665 0
-0.16341898 0.35705411 0.095668383 0
-0.15396464 0.35578239 0.080867767 0
0.3522644 0.70217097 0.22414199 0
0.31797561 0.70169252 0.17737901 0
0.26374292 0.70006889 0.14782685 0
0.25197276 0.69989347 0.12989958 0
0.2567234 0.6981104 0.12556712 0
0.22824945 0.69459647 0.085984528 0
0.21690036 0.69477606 0.080450401 0
0.19321066 0.69269782 0.069879815 0
0.17689738 0.69244081 0.061314847 0
-0.035672422 0.037030067 0.054119904 0
-0.02578802 0.040716227 0.064795852 0
-0.031251967 0.047014672 0.055757564 0
-0.027654253 0.051001117 0.058770448 0
-0.024334218 0.052299075 0.061664343 0
-0.037474182 0.055096753 0.053702876 0
0.09118659 0.070705019 0.13911583 0
-0.019656621 0.061571054 0.067512989 0
-0.090441324 0.19183238 0.24039182 0
-0.023277223 0.18394764 0.1804204 0
-0.08683037 0.19363198 0.24337041 0
-0.021346699 0.19452584 0.1816645 0
-0.025277432 0.19836651 0.17613082 0
-0.026667669 0.19990078 0.17525318 0
-0.099292286 0.21106946 0.23559342 0
-0.026340324 0.20291838 0.1748257 0
-0.023627669 0.20350106 0.17720439 0
-0.024895594 0.20597912 0.17484903 0
-0.097915754 0.22114974 0.24067737 0
-0.096030504 0.22101989 0.24243043 0
-0.028132318 0.21169743 0.17187878 0
-0.11017112 0.22401662 0.23154491 0
-0.025320068 0.21490033 0.17311645 0
-0.11486907 0.22923537 0.23058885 0
-0.10510796 0.23400836 0.24340697 0
-0.026683876 0.22275992 0.1697855 0
-0.12149073 0.23214947 0.22768329 0
-0.12106961 0.23539747 0.229047 0
-0.11225171 0.23812266 0.23919997 0
-0.15816882 0.23365472 0.22483627 0
-0.16333468 0.2497333 0.23435956 0
-0.15401456 0.25142398 0.23856585 0
-0.040342439 0.23822007 0.15699297 0
-0.029250426 0.24016316 0.1596048 0
-0.15636462 0.25287277 0.23958203 0
-0.16129111 0.25343749 0.23836386 0
-0.031659819 0.24555242 0.15403078 0
-0.035103939 0.24976087 0.14557312 0
-0.040236972 0.25458145 0.13878141 0
-0.034766391 0.25552496 0.14399885 0
-0.033094004 0.25815517 0.14533141 0
-0.054630034 0.25500339 0.12564214 0
-0.041982759 0.25755122 0.13678685 0
-0.054045878 0.25853276 0.1257498 0
-0.036637057 0.26420611 0.14200051 0
-0.051311269 0.26375607 0.12832798 0
-0.049566135 0.26374924 0.12990661 0
-0.049675923 0.26492128 0.1281549 0
0.099192336 0.36022022 0.029950108 0
0.011386883 0.35098654 -0.022380158 0
0.00021999329 0.37743637 -0.052841932 0
0.052194443 0.40766874 -0.0099614235 0
0.053700835 0.41535532 -0.0097582899 0
0.061094441 0.42148799 -0.0046873479 0
0.21582688 0.4975993 0.12150007 0
0.0084324069 0.42021924 -0.048248701 0
0.020566009 0.45504215 -0.039768897 0
0.26890764 0.5987727 0.16084185 0
0.34860754 0.69934237 0.22179045 0
0.34903675 0.70271969 0.21112785 0
0.26420709 0.7011646 0.1504918 0
0.27888945 0.69997931 0.14765815 0
0.22824097 0.69450927 0.09002009 0
0.20384865 0.69352895 0.064399302 0
0.19831425 0.69335741 0.061055116 0
0.17935248 0.69202155 0.051283345 0
0.14934476 0.68986237 0.016866583 0
0.12724873 0.68976432 0.016759358 0
0.13286304 0.68946105 0.0065681264 0
-0.02787327 0.038298335 0.063812099 0
-0.014896583 0.043219879 0.073574893 0
-0.029682487 0.042651836 0.05915701 0
-0.026120462 0.043789659 0.063637331 0
-0.025438562 0.042432837 0.064691126 0
-0.025562957 0.046649132 0.061921913 0
-0.019446649 0.047658648 0.069898859 0
-0.0078187399 0.050437838 0.082463257 0
-0.0073454976 0.04971759 0.083843209 0
-0.0066407472 0.050198365 0.085111022 0
-0.019036487 0.050369781 0.068484008 0
-0.011798419 0.051010631 0.078889005 0
-0.010474011 0.051445387 0.080027543 0
-0.0089983046 0.051885679 0.081517227 0
-0.0066464245 0.051374365 0.083776593 0
0.0042479783 0.055024661 0.095793605 0
0.0078889206 0.057349741 0.10026256 0
-0.024669658 0.054064818 0.061763469 0
-0.018972121 0.054334689 0.067319192 0
-0.016214553 0.055008527 0.071128465 0
0.0068678707 0.058040209 0.098801121 0
-0.029142216 0.054113932 0.057981428 0
-0.025047898 0.055979058 0.061674085 0
-0.031635903 0.056163594 0.057159383 0
-0.017176539 0.058277871 0.069453865 0
0.0055571869 0.061423976 0.097660594 0
0.0084344223 0.061523732 0.1012265 0
0.0085126981 0.061630473 0.10140703 0
0.0095184445 0.062351227 0.10293733 0
0.0057965405 0.065196373 0.094927706 0
0.0035574213 0.065195836 0.091139778 0
0.0078730397 0.066417553 0.097709522 0
0.014985658 0.067751057 0.11002748 0
0.017323352 0.07030011 0.11429407 0
-0.02077717 0.18986538 0.18283275 0
-0.02213601 0.19558412 0.18049514 0
-0.020655978 0.19827232 0.18304236 0
-0.018437833 0.19922043 0.18740635 0
-0.017587621 0.20336305 0.19068928 0
-0.020801708 0.20894819 0.18286592 0
-0.022753332 0.20985554 0.17802587 0
-0.021237947 0.21176633 0.18166806 0
-0.021883946 0.21454582 0.18000086 0
-0.022971824 0.22994243 0.17647563 0
-0.023907278 0.230048 0.17295392 0
-0.024848673 0.23633809 0.16895674 0
-0.026209138 0.24001397 0.16500935 0
-0.040952086 0.24085432 0.15161681 0
-0.027597027 0.24527414 0.15936451 0
-0.031645477 0.25058979 0.14986585 0
-0.030392807 0.2511186 0.15094885 0
-0.028012807 0.25190303 0.15809579 0
-0.027126132 0.25265786 0.15937667 0
-0.029717682 0.25567436 0.15100427 0
-0.032530367 0.25670269 0.14676726 0
-0.041165993 0.25588521 0.13796438 0
-0.035897758 0.25719127 0.14252922 0
-0.032399401 0.25910664 0.14701842 0
-0.030084306 0.25935811 0.15086207 0
-0.033778429 0.26120943 0.14540771 0
-0.034409985 0.26216036 0.14398251 0
-0.03488984 0.26469535 0.14193884 0
0.21165684 0.40697798 0.12169929 0
-0.008421205 0.37041473 -0.060638607 0
0.099720143 0.42455268 0.027175076 0
0.0517186 0.41235772 -0.011255819 0
0.20830551 0.46422467 0.11706427 0
0.1965947 0.46619782 0.10685879 0
0.17071512 0.47119093 0.084656768 0
0.15613487 0.48639941 0.071496718 0
0.059690639 0.46761361 -0.0079330066 0
0.08544907 0.49404284 0.012202197 0
0.11615307 0.5226174 0.036706876 0
0.014553491 0.50701547 -0.047032516 0
0.39840794 0.70871198 0.38007998 0
0.39696532 0.70537984 0.32817364 0
0.38471723 0.70792115 0.32408899 0
0.3876316 0.70804012 0.32248896 0
0.38559023 0.70701295 0.27199841 0
0.38876134 0.70660734 0.26589102 0
0.38457045 0.70581448 0.25622195 0
0.35605824 0.70255011 0.22915645 0
0.3463318 0.70000857 0.22048417 0
0.3501946 0.702595 0.21368833 0
0.29992715 0.69788611 0.18187019 0
0.29440993 0.69886059 0.17735109 0
0.29660165 0.69944423 0.17791779 0
0.29567048 0.70054919 0.17664382 0
0.32650024 0.70250249 0.18063423 0
0.26822636 0.69401312 0.15619148 0
0.27274254 0.69646025 0.16001692 0
0.25920072 0.69780916 0.14848694 0
0.26638007 0.70005369 0.15432154 0
0.27853444 0.70117599 0.15744153 0
0.23196626 0.69135392 0.1262974 0
0.24577145 0.69594336 0.13672578 0
0.26668614 0.69988638 0.14595482 0
0.24259189 0.69642389 0.13193566 0
0.25946856 0.70028794 0.14109394 0
0.24426635 0.69802982 0.13093771 0
0.24939707 0.69994366 0.13183379 0
0.28104359 0.70063412 0.13584743 0
0.22596519 0.69505268 0.096524954 0
0.23958215 0.69579053 0.098709047 0
0.18751739 0.69283098 0.06403584 0
0.17625959 0.69223177 0.053248402 0
0.17883414 0.6924603 0.047922559 0
0.12998928 0.68958563 0.014953314 0
0.13298053 0.68986487 0.016484814 0
0.12592626 0.68952543 0.010338786 0
-0.0077725686 0.047778796 0.080826491 0
-0.00030979887 0.057336099 0.090723515 0
0.012621127 0.072891384 0.10786904 0
0.01613827 0.076527826 0.11554438 0
0.018409126 0.082524702 0.11982642 0
-0.020512745 0.20015763 0.18313284 0
-0.020927396 0.21354263 0.18133363 0
-0.022671901 0.22324432 0.17762676 0
-0.023602985 0.22693639 0.17421766 0
-0.033856228 0.26576763 0.1432365 0
-0.058722023 0.26561278 0.12034985 0
-0.051847123 0.26628673 0.12272743 0
0.34843481 0.70827663 0.40547964 0
0.34663936 0.70551902 0.38878906 0
0.34899792 0.70649433 0.38186911 0
0.40546492 0.70711553 0.37864286 0
0.36364982 0.70561123 0.3331022 0
0.35664877 0.7050963 0.30653897 0
0.36457229 0.70504421 0.29100847 0
0.3937861 0.70700288 0.28622496 0
0.39390913 0.70694959 0.27751812 0
0.3841837 0.70616537 0.25903177 0
0.33725235 0.69727278 0.21039088 0
0.36151326 0.70534325 0.22951834 0
0.3452574 0.70288831 0.21215002 0
0.33582878 0.70289564 0.19617081 0
0.26364326 0.69425815 0.15182436 0
0.31639248 0.70204651 0.1840544 0
0.22200114 0.68965983 0.11784673 0
0.24809769 0.69672114 0.13894276 0
0.32404533 0.70223075 0.17851076 0
0.22220194 0.69136149 0.11754273 0
0.26646492 0.70034748 0.14670941 0
0.2544899 0.69968188 0.13417187 0
0.24682844 0.69943869 0.12959942 0
0.25737196 0.69951719 0.13214001 0
0.29394203 0.70069575 0.14745362 0
0.26159653 0.69952685 0.12683097 0
0.24309371 0.69588649 0.10510027 0
0.26453948 0.69920909 0.11886789 0
0.22855675 0.69527167 0.092004068 0
0.20940018 0.69378114 0.074728034 0
0.18453407 0.69250512 0.047599092 0
0.18740176 0.69259506 0.049109813 0
0.29464519 0.70695049 0.47053161 0
0.40580231 0.70633668 0.38676253 0
0.34768373 0.70508522 0.33919069 0
0.40551397 0.70670432 0.38541731 0
0.40598899 0.70758873 0.38255203 0
0.36384723 0.70584565 0.33886495 0
0.40074888 0.70578074 0.34800804 0
0.37432408 0.70627046 0.322873 0
0.36201003 0.704575 0.28643048 0
0.24192595 0.69262195 0.13310541 0
0.15656969 0.69112664 0.04964428 0
0.3139157 0.70170563 0.17973061 0
0.35645676 0.7039035 0.21545993 0
0.24423566 0.69791466 0.11534895 0
0.29648429 0.70099711 0.16141312 0
0.35741523 0.70386016 0.21301344 0
0.18446748 0.69228917 0.053725202 0
0.24524264 0.69689447 0.10873303 0
0.22022264 0.69461721 0.081713654 0
0.19265744 0.6928795 0.05477877 0
0.1552946 -0.21495919 0.25945857 0
0.06274908 -0.12824547 0.46877241 0
0.18164858 0.049681928 0.28500143 0
0.00031203777 0.057288341 0.090616636 0
-0.03430371 0.10551884 0.078796141 0
0.31054628 0.18748149 0.27209786 0
0.098386392 0.71031672 0.62013263 0
0.12342137 0.71058631 0.5911082 0
0.14903718 0.70971447 0.52513152 0
0.25659591 0.70619321 0.52013332 0
0.24689317 0.70735449 0.48420924 0
0.24677943 0.70761806 0.48445022 0
0.27247131 0.70652962 0.47831568 0
0.27508757 0.70723099 0.48825523 0
0.29788876 0.65274119 0.32260054 0
0.29699168 0.70674872 0.47047356 0
0.29692274 0.70707786 0.47256461 0
0.30170774 0.70572144 0.39538524 0
0.32992062 0.70469606 0.3692714 0
0.3324056 0.70489383 0.36462492 0
0.32676023 0.70373064 0.34868607 0
0.32131243 0.70348054 0.33587566 0
0.33221802 0.70392227 0.35229033 0
0.33452642 0.70444357 0.353531 0
0.33431035 0.7044487 0.350431 0
0.33748844 0.7046898 0.3549906 0
0.12153874 0.68837893 0.0010649357 0
0.34832174 0.70559746 0.36433026 0
0.34264943 0.70459497 0.33672607 0
0.34517375 0.70484793 0.34101346 0
0.34508914 0.70492828 0.33466768 0
0.36949563 0.70483619 0.36699334 0
0.34530491 0.70444465 0.32614082 0
0.17684674 0.69162339 0.046080984 0
0.35531509 0.70541519 0.32023874 0
0.35790393 0.70562083 0.32454717 0
0.38961279 0.70618302 0.36771268 0
0.36309299 0.705338 0.31320098 0
0.40743631 0.7090019 0.38176048 0
0.40023741 0.70748514 0.36020628 0
0.36444271 0.70475352 0.28497782 0
0.36660025 0.70498115 0.28356829 0
0.37189952 0.70531106 0.28107864 0
0.41574129 0.70821327 0.34361967 0
0.42337602 0.70584464 0.33244041 0
0.39131603 0.70682895 0.2816034 0
0.39646006 0.70717943 0.28448683 0
0.39947227 0.70669121 0.27160475 0
0.39917475 0.70654172 0.26235643 0
0.40184057 0.70671368 0.26383361 0
0.40751341 0.70636898 0.25693241 0
0.16989905 -0.010308532 0.29157555 0
0.11746329 0.28131479 0.51788926 0
0.28778517 0.23295973 0.32912549 0
0.19022432 0.28850248 0.44430581 0
0.081956692 0.71080631 0.5744065 0
0.27494735 0.62956458 0.34723675 0
0.23316947 0.70884901 0.52406454 0
0.20976776 0.7047258 0.42954126 0
0.26465279 0.70749593 0.49607822 0
0.25810033 0.70601368 0.45101103 0
0.27345836 0.70750648 0.49203956 0
0.26634631 0.70721883 0.46790084 0
0.27255195 0.70641321 0.48168463 0
0.27797586 0.70618296 0.45930865 0
0.2924991 0.70664233 0.46783164 0
0.27884454 0.70523131 0.41036472 0
0.28271872 0.70543939 0.4156855 0
0.32203257 0.70561773 0.41344669 0
0.31469172 0.70479286 0.36808041 0
0.30252862 0.70105183 0.16474722 0
0.35889804 0.70540327 0.34315982 0
0.38480094 0.70351261 0.36053911 0
0.37128431 0.70524091 0.31191531 0
0.37379247 0.70543653 0.31349123 0
0.40568987 0.7061795 0.37392694 0
0.066442318 0.048724502 0.43907553 0
0.1532118 0.040378649 0.35175231 0
0.13692299 0.062694363 0.38066727 0
0.064215057 0.13022213 0.4436225 0
0.20287883 0.38001639 0.42479855 0
0.21139413 0.38099232 0.42170566 0
0.17756948 0.4094598 0.48300886 0
0.25500354 0.38567781 0.39097178 0
0.30742249 0.37839064 0.32920116 0
0.30918613 0.38230863 0.32666343 0
0.085704707 0.70972848 0.61282384 0
0.10716865 0.71185094 0.59139526 0
0.1838228 0.70967478 0.52600962 0
0.19417353 0.70775592 0.49196252 0
0.20288381 0.70708907 0.47080827 0
0.20336458 0.70733571 0.48088554 0
0.2102872 0.7079674 0.50199664 0
0.22389542 0.70737207 0.49213177 0
0.24657074 0.70649022 0.51847667 0
0.24904647 0.70686507 0.51990694 0
0.25863513 0.70708448 0.51289713 0
0.26500434 0.70671916 0.49379799 0
0.27161786 0.70541924 0.49074236 0
0.28330123 0.70684505 0.47423863 0
0.2880623 0.70766103 0.48037377 0
0.3160812 0.70585197 0.38198894 0
0.32387248 0.70424658 0.36134711 0
0.33323556 0.70597851 0.40341341 0
0.35244364 0.70533127 0.31844783 0
0.35511661 0.70543933 0.31694546 0
0.36933768 0.70505702 0.28306291 0
0.36463034 0.70436144 0.2165928 0
0.38662761 0.70449698 0.35676554 0
0.38538495 0.70487207 0.24164377 0
0.39191839 0.70633727 0.27853566 0
0.3959794 0.70408285 0.29400274 0
0.39829251 0.70490062 0.29478425 0
0.39655966 0.70643705 0.26075724 0
0.40345129 0.70527899 0.34101242 0
0.41488463 0.70849746 0.38105065 0
0.0414306 -0.25189102 0.40592611 0
0.29530886 0.16908233 0.30027795 0
0.25214267 0.37131515 0.3669571 0
0.34092617 0.58401579 0.27322727 0
0.094715312 0.71097255 0.59949046 0
0.10638155 0.7101745 0.62950337 0
0.12536712 0.71011263 0.56285733 0
0.13043651 0.71075994 0.55903959 0
0.1407312 0.70968187 0.53493488 0
0.13997743 0.71060467 0.56703812 0
0.17943403 0.70855874 0.52390867 0
0.17737196 0.70934772 0.53020835 0
0.21475409 0.70657372 0.43093798 0
0.2360903 0.70214504 0.40647724 0
0.20575 0.70888048 0.51938277 0
0.2413491 0.70650053 0.4721618 0
0.25173771 0.70672804 0.45324525 0
0.24421883 0.70745432 0.48936176 0
0.25470388 0.70622581 0.44897723 0
0.24817994 0.70704025 0.49595156 0
0.26406729 0.70622855 0.45075667 0
0.26190376 0.70725024 0.45730257 0
0.26333004 0.70720857 0.46966732 0
0.26437679 0.70826554 0.49827901 0
0.28567746 0.70621884 0.46997645 0
0.28756052 0.70780009 0.47278976 0
0.28766647 0.70836377 0.4756625 0
0.32028773 0.70552474 0.3703391 0
0.3181003 0.70597768 0.41702601 0
0.34807816 0.70536107 0.35445955 0
0.35359555 0.70561498 0.35775876 0
0.25150171 0.205688 0.36783513 0
0.15939055 0.28559524 0.48023823 0
0.2188905 0.48999825 0.42582393 0
0.01070996 0.70829904 0.53969312 0
0.031001884 0.70803511 0.5597716 0
0.038829606 0.70843619 0.55398166 0
0.041983359 0.70839328 0.56268573 0
0.040301118 0.70869881 0.5716334 0
0.052395079 0.70902085 0.56899363 0
0.05650821 0.70927972 0.5715012 0
0.055439483 0.70919639 0.58429945 0
0.060162351 0.70950508 0.58379567 0
0.061103947 0.70896602 0.58811384 0
0.068543576 0.70974463 0.58182025 0
0.079041757 0.71032453 0.57285511 0
0.074993625 0.71002555 0.57876611 0
0.081573769 0.71011341 0.58245063 0
0.078863688 0.70977294 0.59166127 0
0.075808585 0.70951563 0.59989011 0
0.079911456 0.70923531 0.60673267 0
0.2664668 0.69348109 0.35500112 0
0.092384323 0.71095788 0.58591771 0
0.095428444 0.71103764 0.58764863 0
0.1145051 0.71061534 0.5760237 0
0.10719299 0.71144348 0.58535302 0
0.09495984 0.71033096 0.60685819 0
0.15653998 0.70830196 0.51657927 0
0.10438523 0.71176851 0.58977193 0
0.097802468 0.71075737 0.60486341 0
0.16462174 0.70858818 0.51588231 0
0.14901859 0.70922208 0.54016292 0
0.14021738 0.70935512 0.55195963 0
0.13117853 0.71024877 0.56632006 0
0.12820846 0.71034062 0.5677681 0
0.13414025 0.70987147 0.56850517 0
0.12870446 0.71020168 0.5760482 0
0.19769539 0.7071836 0.48819387 0
0.1707913 0.70875531 0.53977603 0
0.24477068 0.70608032 0.43302763 0
0.17384285 0.70903569 0.54022062 0
0.25085139 0.70590281 0.42600119 0
0.18335067 0.70922261 0.53303164 0
0.18914586 0.70851386 0.53334707 0
0.3534686 0.70403141 0.27917832 0
0.22139513 0.70695531 0.49072409 0
0.20702559 0.70798284 0.51057976 0
0.20331393 0.70800155 0.51916665 0
0.30726647 0.70371944 0.36321318 0
0.26097485 0.70560604 0.4356918 0
0.221899 0.70752108 0.49636358 0
0.21006528 0.70793706 0.51255798 0
0.19469461 0.70864934 0.53995854 0
0.35351047 0.70415401 0.295784 0
0.27002046 0.70563275 0.43330157 0
0.34508401 0.70418805 0.32076246 0
0.3215788 0.70369768 0.35676637 0
0.26420417 0.70608002 0.44385186 0
0.25784391 0.70651531 0.45358753 0
0.21847536 0.70783961 0.51432431 0
0.36207318 0.70490003 0.29602644 0
0.29273689 0.70565605 0.4035418 0
0.27559143 0.70562923 0.4332349 0
0.24642253 0.70701826 0.47810918 0
0.22435734 0.70785379 0.51118934 0
0.21597622 0.70819473 0.52262825 0
0.21606296 0.70813519 0.52608967 0
0.35016438 0.70474398 0.31729865 0
0.3651714 0.70494789 0.29772833 0
0.26602527 0.7059164 0.46090981 0
0.26631317 0.70616049 0.46415275 0
0.39590299 0.70570236 0.25459141 0
0.36815181 0.70524549 0.30306858 0
0.34048468 0.7046414 0.35086173 0
0.24202277 0.70711106 0.50943506 0
0.33558762 0.7046237 0.36895379 0
0.31652257 0.70533985 0.39404646 0
0.37346643 0.70557284 0.30617324 0
0.36857074 0.70517421 0.31387556 0
0.34119841 0.70469397 0.36440781 0
0.41048416 0.70378685 0.25480723 0
0.37905052 0.70585847 0.30572245 0
0.32824564 0.70532423 0.39426377 0
0.2915765 0.70567936 0.45028695 0
0.28946167 0.70577586 0.45437804 0
0.28299561 0.70656914 0.46398962 0
0.39383239 0.70502442 0.29252076 0
0.33828479 0.70548004 0.38105047 0
0.32074881 0.70560831 0.41088039 0
0.28673527 0.7044394 0.46880156 0
0.33348939 0.7055347 0.39658004 0
0.35415232 0.70551783 0.36442387 0
0.27605674 0.70691985 0.49517816 0
0.42707121 0.70431781 0.26989344 0
0.3592349 0.70566201 0.38439006 0
0.40810144 0.70419884 0.32468936 0
0.3879824 0.7045241 0.36424658 0
0.38379484 0.70580739 0.36758077 0
0.3905552 0.70579833 0.35973939 0
0.38674325 0.7043997 0.36781859 0
0.41499996 0.70299518 0.33105171 0
0.4136124 0.70330018 0.33545923 0
0.39547598 0.70612931 0.35882008 0
0.42215347 0.70503581 0.32604277 0
0.40540501 0.70642442 0.35506472 0
0.045171395 0.16415204 0.44641906 0
