# .PCD v0.7 - Point Cloud Data file format
VERSION 0.7
FIELDS x y z intensity
SIZE 4 4 4 4
TYPE F F F F
COUNT 1 1 1 1
WIDTH 1375
HEIGHT 1
VIEWPOINT 0 0 0 1 0 0 0
POINTS 1375
DATA ascii
0.19821724 0.040323086 0.24269392 0
0.037479341 0.052884594 0.47075272 0
0.16882774 0.04813835 0.33183867 0
0.14491175 0.04903039 0.36803237 0
0.037441 0.054041427 0.46883473 0
0.16840363 0.049435854 0.33346653 0
0.15474674 0.05131077 0.35333988 0
0.11844976 0.052294858 0.39953509 0
0.035817452 0.057070225 0.47073567 0
0.19569349 0.045870513 0.24156596 0
0.19379957 0.045393303 0.24634622 0
0.13888119 0.054317109 0.37715834 0
0.1077759 0.055458728 0.41290662 0
0.19510303 0.048504114 0.24057487 0
0.13813314 0.055703811 0.37854874 0
0.13867824 0.057641525 0.37843418 0
0.13234289 0.056506254 0.38531834 0
0.13169397 0.057644129 0.38647678 0
0.11767758 0.058197286 0.40164146 0
0.18976757 0.051137142 0.24612133 0
0.16182564 0.058075856 0.34770477 0
0.12395091 0.060603771 0.39568302 0
0.11639475 0.061061364 0.40425444 0
0.11118268 0.061525255 0.41097185 0
0.15982114 0.058775492 0.35051808 0
0.1342977 0.062200986 0.38510734 0
0.11585647 0.062088232 0.40522024 0
0.10944574 0.062462796 0.41364878 0
0.15192166 0.061845168 0.36125207 0
0.13340271 0.063466087 0.38632864 0
0.12179072 0.064494073 0.39926174 0
0.033248268 0.068496183 0.46190065 0
0.17388299 0.063015714 0.32969466 0
0.15152742 0.064921543 0.36261705 0
0.13415259 0.065470919 0.38640276 0
0.12221318 0.066461898 0.39935395 0
0.11891535 0.066546679 0.40357697 0
0.031219967 0.069597602 0.46749538 0
0.16373989 0.0660173 0.34795886 0
0.11894353 0.069835454 0.40501121 0
0.16118905 0.069138624 0.35238132 0
0.16175935 0.067710042 0.35098451 0
0.11506213 0.071436413 0.41088837 0
0.19137809 0.063725814 0.23317578 0
0.15002853 0.072159305 0.36691219 0
0.11972947 0.075047672 0.40641636 0
0.1726813 0.066233359 0.24935237 0
0.17293242 0.071314313 0.33470929 0
0.16059718 0.073519811 0.35505909 0
0.15051377 0.074171573 0.36684176 0
0.13792181 0.074526399 0.38352534 0
0.12506376 0.075918272 0.39923349 0
0.1130369 0.077292651 0.41510743 0
0.15456903 0.076049879 0.36276224 0
0.1431991 0.077143364 0.37710568 0
0.12389634 0.078393705 0.40219 0
0.11712407 0.078506999 0.4110899 0
0.17192169 0.070681103 0.24582192 0
0.14683004 0.078958705 0.37189093 0
0.11551907 0.081759319 0.41372013 0
0.017982744 0.084245041 0.4756389 0
0.14714433 0.080911137 0.37168115 0
0.13663116 0.083577149 0.38403735 0
0.11924568 0.087194949 0.41076484 0
0.17887419 0.076627493 0.23883206 0
0.16575158 0.08495678 0.35073218 0
0.1195881 0.089152195 0.41085151 0
0.1182917 0.088327177 0.41209269 0
0.17593454 0.078801781 0.23802593 0
0.02074866 0.093296662 0.46567237 0
0.15815707 0.089234069 0.36166617 0
0.12260673 0.091874272 0.40768948 0
0.12041924 0.093032576 0.41039267 0
0.019014552 0.096012913 0.46739078 0
0.017210096 0.095502011 0.47018746 0
0.15549475 0.092504688 0.36475754 0
0.015480004 0.099543273 0.47303784 0
0.1555194 0.094495833 0.36481935 0
0.13301668 0.095529512 0.38230896 0
0.11636889 0.097318478 0.41498283 0
0.16291228 0.097047128 0.35562322 0
0.16283245 0.095127821 0.35587358 0
0.023688219 0.10257461 0.45902303 0
0.16455582 0.098828465 0.35251275 0
0.16259474 0.098989174 0.35559648 0
0.025399052 0.10499783 0.45715335 0
0.12745464 0.10426079 0.40054238 0
0.11146114 0.10456812 0.41904381 0
0.016967289 0.10831464 0.46895292 0
0.16034809 0.10425349 0.35806078 0
0.1580577 0.10375579 0.36079869 0
0.11348654 0.10669515 0.41643989 0
0.017400034 0.11145455 0.46706319 0
0.018869743 0.11133382 0.46450052 0
0.1205414 0.11140998 0.40873617 0
0.15849988 0.11034127 0.35785916 0
0.11181223 0.11457725 0.4167318 0
0.12375436 0.11425149 0.40300983 0
0.031926788 0.11916744 0.45606011 0
0.035615362 0.12018588 0.44979021 0
0.013292558 0.12253887 0.46892196 0
0.010389291 0.12324578 0.4783102 0
0.17550017 0.10577632 0.21403097 0
0.1609837 0.11649219 0.34828377 0
0.1286507 0.11980333 0.3930214 0
0.1010663 0.12270611 0.42482877 0
0.15723434 0.11122867 0.22950025 0
0.17189248 0.11814134 0.31504884 0
0.24195746 0.12736693 0.3583135 0
0.19785815 0.12961705 0.37960097 0
0.14246944 0.13434832 0.44691151 0
0.13628432 0.13477704 0.45614466 0
0.26485237 0.12872241 0.33066261 0
0.15832669 0.13599075 0.42759895 0
0.14374328 0.13625972 0.44716167 0
0.14308944 0.13758948 0.44853505 0
0.20376602 0.12147797 0.20593931 0
0.28121942 0.12907082 0.30855751 0
0.18552683 0.13421342 0.39408907 0
0.1772394 0.13523757 0.40546435 0
0.16855413 0.13718484 0.41662887 0
0.1501196 0.13796054 0.44073138 0
0.14554937 0.1386494 0.44576472 0
0.28778511 0.13101816 0.29962865 0
0.26030645 0.1334732 0.3377586 0
0.25842553 0.1342054 0.34050635 0
0.18659438 0.13826738 0.39488548 0
0.16937998 0.14129046 0.41661167 0
0.15270197 0.14337942 0.43782416 0
0.25161237 0.13887863 0.35015604 0
0.25056124 0.13801941 0.35150629 0
0.18398251 0.14226221 0.39876884 0
0.18323749 0.14347635 0.40007618 0
0.27747416 0.13716933 0.31673554 0
0.27039391 0.14000061 0.32723501 0
0.26652038 0.1385493 0.33162957 0
0.25138244 0.14196378 0.3518301 0
0.18237317 0.14469709 0.40125543 0
0.18080929 0.14492181 0.40380448 0
0.17040633 0.14510383 0.41641223 0
0.14152381 0.14982091 0.45467168 0
0.28027421 0.14069197 0.3140012 0
0.27156273 0.14066219 0.32582092 0
0.2441168 0.14308681 0.35990074 0
0.17077254 0.14711231 0.416857 0
0.14705843 0.15034319 0.44709924 0
0.14371341 0.15163502 0.45203546 0
0.13342884 0.15146261 0.46540639 0
0.28577673 0.14281958 0.30700308 0
0.25972965 0.14377058 0.34037244 0
0.24350496 0.1460648 0.36107057 0
0.24224211 0.14520416 0.36255559 0
0.19809076 0.14731675 0.38480875 0
0.17396577 0.15004344 0.41394764 0
0.16209725 0.15055299 0.42670503 0
0.14309511 0.15293691 0.4534826 0
0.12972349 0.15406899 0.47075695 0
0.1263507 0.15570413 0.47467047 0
0.26977938 0.14613432 0.32914996 0
0.18616383 0.15043812 0.39925873 0
0.17439857 0.15207246 0.41403297 0
0.26828685 0.14812014 0.33145458 0
0.24415688 0.15075989 0.36175779 0
0.18158342 0.15422401 0.40595719 0
0.14331585 0.15787458 0.45491666 0
0.12919788 0.15937708 0.47201964 0
0.12699023 0.15958585 0.47463703 0
0.28779423 0.14739306 0.30557656 0
0.27793309 0.1487862 0.31935337 0
0.26781109 0.14940487 0.33286551 0
0.25219196 0.1511243 0.35301363 0
0.17526561 0.15798789 0.41430339 0
0.15848228 0.15837622 0.43475896 0
0.1263198 0.16285899 0.4760375 0
0.12634313 0.16273768 0.4759945 0
0.27649763 0.15108462 0.32210654 0
0.24018164 0.15574762 0.36768389 0
0.18814214 0.15718885 0.39759898 0
0.16870335 0.16044977 0.4211683 0
0.16977395 0.15938103 0.41990677 0
0.13468769 0.16447456 0.46676213 0
0.26479131 0.15573934 0.33799243 0
0.16995426 0.16091888 0.42017913 0
0.16242135 0.16358905 0.43085635 0
0.14901723 0.16368477 0.44688979 0
0.29052675 0.15552847 0.30398697 0
0.25393331 0.15924953 0.35228243 0
0.25183854 0.15989378 0.35493892 0
0.24266459 0.1591859 0.364905 0
0.19423905 0.16200517 0.39202815 0
0.19064379 0.16208377 0.39662647 0
0.18985263 0.16320725 0.39799562 0
0.18513295 0.16372617 0.40314955 0
0.27859443 0.15794492 0.32173574 0
0.18322076 0.16602431 0.40563691 0
0.17787409 0.1659597 0.41222665 0
0.17449918 0.16521895 0.4160884 0
0.17573205 0.16608728 0.41478184 0
0.16985983 0.16753529 0.42245063 0
0.18446589 0.16683991 0.40443176 0
0.18174444 0.16825339 0.40830657 0
0.16219679 0.17094712 0.43274751 0
0.27746305 0.16204531 0.32396197 0
0.27501583 0.16359745 0.32785544 0
0.27388433 0.16298467 0.32931134 0
0.19902848 0.16790129 0.38755885 0
0.17385867 0.17194736 0.41870415 0
0.1722519 0.1721638 0.42108297 0
0.13735475 0.1749738 0.46696603 0
0.27842799 0.16583128 0.32395694 0
0.26408044 0.16697869 0.34194314 0
0.25059494 0.16912168 0.35973299 0
0.19118968 0.17038751 0.39688823 0
0.16444613 0.17347039 0.43131346 0
0.26666909 0.16825846 0.33932114 0
0.25938284 0.16948316 0.34844425 0
0.25091502 0.17101891 0.35965577 0
0.24901073 0.17083097 0.36180136 0
0.18306606 0.17412435 0.40835261 0
0.18001026 0.17408369 0.41205177 0
0.17585254 0.17458816 0.4170751 0
0.16966185 0.17616555 0.42564911 0
0.15532711 0.17737323 0.44267616 0
0.27018869 0.17047675 0.335381 0
0.26808906 0.17142645 0.3382571 0
0.1827167 0.17725223 0.40956414 0
0.12675172 0.18226224 0.48068029 0
0.28409332 0.17155057 0.31685597 0
0.27856261 0.17230503 0.32598507 0
0.26923767 0.17210752 0.33689913 0
0.25651217 0.17389621 0.35352662 0
0.24880216 0.1756392 0.36327228 0
0.24532586 0.17518802 0.36708748 0
0.19285192 0.17790337 0.39699146 0
0.17860842 0.17931812 0.41430768 0
0.14221728 0.18368669 0.46070489 0
0.1342482 0.18504687 0.47306997 0
0.12783919 0.18523449 0.47972226 0
0.27539334 0.17362289 0.33034182 0
0.25672409 0.17574401 0.35358888 0
0.24533874 0.17834237 0.36832243 0
0.14156289 0.18690036 0.46293902 0
0.27361166 0.17623307 0.33272636 0
0.25738269 0.17977187 0.3534604 0
0.183402 0.18267629 0.40994942 0
0.18013886 0.18320766 0.41460878 0
0.13422716 0.19004153 0.47443256 0
0.13209942 0.19008365 0.47701749 0
0.25877157 0.18066853 0.35205278 0
0.20109169 0.18543936 0.39011323 0
0.19391768 0.18483065 0.39815208 0
0.18843924 0.18654993 0.40508184 0
0.17222846 0.18712744 0.42554435 0
0.28502077 0.18119901 0.31908515 0
0.28480399 0.17960334 0.31939015 0
0.25419927 0.18434113 0.35881245 0
0.18310192 0.18735641 0.41184345 0
0.17235245 0.18909459 0.4256137 0
0.17156751 0.19016565 0.42685336 0
0.13333645 0.19311067 0.47583124 0
0.13136478 0.19303709 0.47859082 0
0.12924193 0.19396877 0.48121646 0
0.27395877 0.18293464 0.33403406 0
0.25920671 0.18612143 0.35342216 0
0.19975418 0.18981367 0.39293396 0
0.19661808 0.18834195 0.39555171 0
0.17120054 0.19323774 0.42846194 0
0.16786134 0.1931708 0.43235734 0
0.16652218 0.19269489 0.43378827 0
0.15934163 0.19316329 0.44147792 0
0.28135061 0.18611969 0.32635999 0
0.27667338 0.18633382 0.33132866 0
0.24928656 0.18953449 0.36580268 0
0.19190648 0.1910826 0.40217134 0
0.13368897 0.19737025 0.47547334 0
0.26950875 0.18847407 0.34065822 0
0.19356185 0.19392815 0.40096587 0
0.18485829 0.194599 0.4115862 0
0.13753921 0.20022503 0.47246042 0
0.27107754 0.19153202 0.33946884 0
0.26768091 0.19059834 0.34353322 0
0.26227462 0.19180848 0.35182178 0
0.18362583 0.19712919 0.41468328 0
0.16825923 0.20001429 0.43423966 0
0.15103213 0.20229645 0.45474827 0
0.14089254 0.20270462 0.46840814 0
0.24516773 0.19562972 0.37214068 0
0.12816536 0.2063269 0.48454154 0
0.27165103 0.19545905 0.33951202 0
0.27044994 0.19462904 0.34082657 0
0.26080742 0.19594979 0.35448539 0
0.24589771 0.19819306 0.37210071 0
0.19804883 0.2001314 0.39771962 0
0.19813825 0.20028202 0.39770433 0
0.19375978 0.20112824 0.4031457 0
0.16504312 0.2038915 0.4382849 0
0.13302261 0.20745878 0.47933045 0
0.28776407 0.19503644 0.31805623 0
0.28082848 0.19615807 0.32911187 0
0.26774839 0.19862674 0.34627983 0
0.26648477 0.19784439 0.34770295 0
0.26561064 0.1991915 0.34884197 0
0.18526265 0.20529209 0.41347945 0
0.18002579 0.20604083 0.42000797 0
0.17597839 0.20639816 0.42537612 0
0.15541705 0.20837562 0.450692 0
0.15155369 0.20908442 0.45577791 0
0.29089212 0.19677888 0.31390825 0
0.27902815 0.19997202 0.33183402 0
0.27391735 0.20047733 0.33893126 0
0.24384446 0.20259278 0.37650394 0
0.19744995 0.20630544 0.40026695 0
0.28746414 0.200267 0.32086825 0
0.27034438 0.20204853 0.34275004 0
0.29277498 0.2006575 0.31358722 0
0.26842216 0.20539296 0.34685093 0
0.19585212 0.21036807 0.4026227 0
0.16886173 0.21242329 0.43453342 0
0.14897558 0.21470262 0.45983315 0
0.14423394 0.21495549 0.46686485 0
0.13753462 0.21700196 0.47656158 0
0.28348055 0.20432957 0.32785931 0
0.24790621 0.20888762 0.3723197 0
0.1836987 0.21273324 0.41741526 0
0.1771698 0.21419363 0.42546242 0
0.16868797 0.21571212 0.43649229 0
0.14577508 0.21760267 0.4655467 0
0.14535369 0.21874945 0.46673614 0
0.29667181 0.20661366 0.3114222 0
0.27794546 0.20713083 0.33598089 0
0.25327426 0.211356 0.3655811 0
0.1424076 0.22083274 0.47068214 0
0.27344796 0.2103354 0.34134826 0
0.26540768 0.21241894 0.35113978 0
0.25792718 0.21260327 0.36012518 0
0.25686684 0.21348411 0.36165175 0
0.25234669 0.21398126 0.36693951 0
0.24922398 0.21349573 0.37070495 0
0.24178669 0.21329935 0.37951383 0
0.18545312 0.21739787 0.41603532 0
0.13127252 0.22446516 0.486983 0
0.28721479 0.21111253 0.32527253 0
0.28668338 0.21244712 0.32644376 0
0.2667267 0.21329519 0.35001665 0
0.25901777 0.21362415 0.35888231 0
0.20062323 0.21835715 0.39850089 0
0.18041611 0.22136782 0.42239252 0
0.15764238 0.22331411 0.4513129 0
0.15881957 0.22421475 0.44998285 0
0.15973008 0.22314158 0.44854403 0
0.31397232 0.20989802 0.27657059 0
0.28220201 0.21364458 0.33189684 0
0.17547549 0.22349988 0.42922619 0
0.13652989 0.22948289 0.48131734 0
0.29843044 0.21442668 0.31146747 0
0.28967559 0.21606648 0.32353392 0
0.27370033 0.21784364 0.34181318 0
0.26946759 0.21689002 0.34707946 0
0.19835582 0.22387841 0.40231386 0
0.19259059 0.22424978 0.4086948 0
0.16398688 0.22853364 0.44591618 0
0.29395044 0.21753395 0.31830302 0
0.29285133 0.21681143 0.31966856 0
0.28986683 0.21798941 0.32371169 0
0.2876994 0.21808876 0.32617164 0
0.27619708 0.21980272 0.33937302 0
0.25082481 0.2226382 0.36947846 0
0.24242333 0.22243729 0.37989348 0
0.18930981 0.22670469 0.4142848 0
0.16814211 0.23028138 0.44044805 0
0.16183946 0.23069094 0.44860724 0
0.31616193 0.21633206 0.27832556 0
0.31378672 0.21761324 0.28926238 0
0.29248324 0.21973374 0.32084882 0
0.26381546 0.22332472 0.35467646 0
0.24901325 0.22414345 0.37234926 0
0.18402757 0.22964136 0.42108914 0
0.18280295 0.22887009 0.4224014 0
0.16636482 0.23225635 0.44299483 0
0.16831298 0.2322371 0.44044572 0
0.15052205 0.23277606 0.46290749 0
0.1512492 0.23465639 0.46287736 0
0.32083783 0.21903563 0.27561104 0
0.28781155 0.22231777 0.32577926 0
0.2506389 0.22774553 0.37067953 0
0.25038001 0.22579744 0.37062529 0
0.24805485 0.22725086 0.37338451 0
0.24938637 0.22798505 0.37215978 0
0.24157566 0.22737545 0.38079786 0
0.19289671 0.23118675 0.40971845 0
0.1928581 0.2312735 0.40990013 0
0.16991025 0.23345053 0.43875882 0
0.17103402 0.23397619 0.43739009 0
0.15942852 0.23489451 0.45310891 0
0.13807589 0.23883072 0.48158282 0
0.13477576 0.23931713 0.48725462 0
0.317801 0.22165439 0.28782335 0
0.28517973 0.22477289 0.32883239 0
0.27588251 0.22659896 0.34029099 0
0.2412217 0.22916329 0.38078657 0
0.17958125 0.23556085 0.42771494 0
0.32298321 0.22337316 0.28003228 0
0.3162058 0.22372538 0.2901338 0
0.28246593 0.22817031 0.33276743 0
0.28029102 0.22826147 0.33531052 0
0.26279715 0.2298276 0.35639012 0
0.25834322 0.2298792 0.36158079 0
0.24120985 0.23167397 0.38056305 0
0.17696261 0.23756395 0.43227434 0
0.16064762 0.23992212 0.45453867 0
0.13923332 0.24262871 0.48178345 0
0.31444624 0.22577071 0.29287347 0
0.30639088 0.22720915 0.30302271 0
0.30071133 0.22812185 0.31051722 0
0.26937571 0.23198755 0.34767967 0
0.25805247 0.23164396 0.36150864 0
0.13569224 0.2452696 0.48739475 0
0.32769433 0.22600371 0.27533868 0
0.31390813 0.22874749 0.29413903 0
0.29386741 0.2315636 0.31944737 0
0.29279634 0.23059392 0.32068923 0
0.26730531 0.23375459 0.35029086 0
0.2433967 0.23755558 0.37918466 0
0.24020706 0.23577604 0.38230687 0
0.23836803 0.23794478 0.38479343 0
0.23736712 0.23711833 0.38617554 0
0.23620261 0.23632622 0.38753903 0
0.17703438 0.24256748 0.43345717 0
0.17502287 0.24353421 0.4361755 0
0.16379859 0.24351834 0.45051211 0
0.33161461 0.22769167 0.27024841 0
0.27419636 0.2353934 0.34283021 0
0.25001538 0.23772474 0.37154147 0
0.24996746 0.23755503 0.37151924 0
0.2393523 0.23879492 0.38338941 0
0.15538363 0.24639916 0.4623915 0
0.14804408 0.24781232 0.47256863 0
0.14804524 0.24780574 0.47251666 0
0.092213131 0.25179496 0.50976682 0
0.33173901 0.22964889 0.27033487 0
0.32625446 0.23139311 0.27841666 0
0.32268491 0.23109822 0.28304181 0
0.31280458 0.23204583 0.29554978 0
0.3010394 0.23384687 0.31046909 0
0.29116565 0.23590137 0.32339635 0
0.17486589 0.24651387 0.43721738 0
0.17100453 0.24738772 0.44221434 0
0.093781248 0.25439405 0.51160944 0
0.091680422 0.25640061 0.51774418 0
0.27674136 0.23973712 0.33976483 0
0.24976584 0.24197339 0.37175727 0
0.2486522 0.24297798 0.37304136 0
0.23612022 0.24420187 0.38705936 0
0.18221012 0.24850003 0.42925084 0
0.15352342 0.25335035 0.46807846 0
0.097314902 0.2565476 0.50998616 0
0.31739259 0.23596053 0.29006341 0
0.31514972 0.23608232 0.29262641 0
0.31396121 0.23694415 0.29390439 0
0.29961291 0.23993462 0.31294581 0
0.26793683 0.24202713 0.35011041 0
0.26217437 0.24264218 0.35717458 0
0.24724466 0.24557592 0.37421831 0
0.2420855 0.24672861 0.3805868 0
0.23967224 0.24686946 0.38302454 0
0.18892491 0.25088909 0.42336193 0
0.17391303 0.25263396 0.44226798 0
0.16135576 0.25399381 0.45737019 0
0.15602976 0.25453809 0.46516788 0
0.1527724 0.25438643 0.46929589 0
0.31848529 0.23849316 0.28843519 0
0.29972735 0.24133255 0.31309986 0
0.29653502 0.24126622 0.31658167 0
0.28032798 0.24377069 0.33524367 0
0.26846796 0.24464591 0.34867388 0
0.26099804 0.24541265 0.35839057 0
0.24836662 0.24605349 0.37283808 0
0.24211952 0.24866921 0.38041699 0
0.23641324 0.24802257 0.38702762 0
0.1037007 0.26115566 0.50486887 0
0.10139257 0.26179692 0.51035976 0
0.095892012 0.26341593 0.5200395 0
0.31189513 0.24217203 0.29655296 0
0.30192009 0.24341337 0.31025949 0
0.29992092 0.24375211 0.31279778 0
0.27542758 0.24507558 0.34098285 0
0.24254486 0.25058255 0.38053176 0
0.204504 0.25218695 0.40501744 0
0.20563528 0.25363266 0.40523037 0
0.16106513 0.25803816 0.46052065 0
0.14866409 0.26031899 0.47609869 0
0.33211571 0.24154364 0.27273792 0
0.3140856 0.24395892 0.29389408 0
0.30797419 0.24461968 0.30156198 0
0.30077186 0.24438278 0.31137753 0
0.28282857 0.24667871 0.33252355 0
0.27312586 0.249065 0.34360769 0
0.2459814 0.25300464 0.37646273 0
0.14617929 0.26248711 0.47992671 0
0.10688666 0.26651028 0.50554067 0
0.32342088 0.24538474 0.28281373 0
0.31092894 0.24683446 0.29757765 0
0.29808611 0.24697903 0.31439602 0
0.28775159 0.24916643 0.32706067 0
0.2866261 0.24821882 0.32834825 0
0.26821288 0.25030991 0.34882364 0
0.26322478 0.25115907 0.35607386 0
0.17519723 0.26102382 0.44453338 0
0.16799548 0.26132995 0.45327744 0
0.33372027 0.24530505 0.27022362 0
0.31611201 0.24807146 0.29114437 0
0.31391102 0.24791759 0.29361579 0
0.3015182 0.24901399 0.30987635 0
0.29483014 0.2502481 0.31820083 0
0.24513955 0.25615597 0.37766254 0
0.23383686 0.2575646 0.39103109 0
0.23051703 0.25859427 0.39469555 0
0.22915295 0.25941119 0.39620712 0
0.17174153 0.26441687 0.4510628 0
0.16654778 0.26391223 0.45575854 0
0.3057965 0.25069076 0.30448595 0
0.29565635 0.25330117 0.31681132 0
0.29468226 0.2522763 0.31813714 0
0.27950385 0.25467333 0.33567739 0
0.24911667 0.25754645 0.37275767 0
0.23597956 0.25954372 0.3882547 0
0.32833776 0.25055626 0.27651113 0
0.29057121 0.25624692 0.322936 0
0.28687078 0.25671715 0.32686457 0
0.27031809 0.25830469 0.34732348 0
0.26044947 0.25817886 0.35979447 0
0.24338317 0.26201591 0.38032252 0
0.24212271 0.26136303 0.3817021 0
0.23496106 0.2624734 0.38953915 0
0.16084823 0.27017859 0.47019577 0
0.33616263 0.25199002 0.26697919 0
0.32845753 0.25260648 0.27632457 0
0.32742202 0.25295392 0.27762982 0
0.3185178 0.25400037 0.28846037 0
0.3020252 0.2565839 0.30868077 0
0.23512059 0.26443547 0.38940391 0
0.22629616 0.26473048 0.39996064 0
0.15624508 0.27448544 0.48417521 0
0.14410579 0.2755478 0.49889344 0
0.31968859 0.25679702 0.28702882 0
0.31209871 0.25764701 0.29633054 0
0.29055861 0.26010394 0.32317424 0
0.274708 0.26192755 0.34157181 0
0.26604164 0.26223397 0.35230762 0
0.25938866 0.263935 0.36121535 0
0.24863057 0.26474047 0.37396511 0
0.23891491 0.26678416 0.38545349 0
0.22070882 0.26795194 0.40627289 0
0.18812393 0.27237147 0.44503194 0
0.17746761 0.27443296 0.45822477 0
0.17446752 0.2732338 0.46069294 0
0.16245024 0.2764084 0.47744834 0
0.14394847 0.27841863 0.50066471 0
0.32964998 0.25722447 0.27498385 0
0.31959903 0.2587716 0.28695777 0
0.31095707 0.25863591 0.29766729 0
0.29058018 0.26217788 0.32304612 0
0.27149102 0.26495299 0.34582779 0
0.25188273 0.26703519 0.3700968 0
0.23673931 0.26954344 0.38797918 0
0.18955511 0.27520654 0.44387054 0
0.14439812 0.28071049 0.50018668 0
0.10830461 0.2859349 0.54561174 0
0.31393272 0.26137534 0.29434076 0
0.28491765 0.2651996 0.32953405 0
0.28351966 0.26548442 0.33124432 0
0.25989926 0.26773968 0.36074695 0
0.25539398 0.26823395 0.36585441 0
0.25067747 0.26826766 0.37134582 0
0.24831831 0.26882166 0.374284 0
0.24473059 0.26903185 0.37892273 0
0.18737029 0.27813879 0.44675642 0
0.18546578 0.27754128 0.44903174 0
0.17374787 0.27916798 0.46353418 0
0.13544643 0.28415376 0.51208287 0
0.31717184 0.2626467 0.29018825 0
0.29349995 0.26516238 0.31887653 0
0.28569788 0.26783469 0.3284542 0
0.25413972 0.27103916 0.3673794 0
0.24872497 0.27262878 0.3741084 0
0.17739177 0.28147206 0.45884776 0
0.16181082 0.28310475 0.47890422 0
0.12060671 0.28694355 0.53065997 0
0.11976698 0.28885004 0.5325051 0
0.098666921 0.29023686 0.55819917 0
0.32820696 0.26382631 0.27614161 0
0.27989036 0.27047583 0.33509991 0
0.27255064 0.26986691 0.34430602 0
0.26028067 0.27287635 0.35939232 0
0.17636499 0.28249204 0.46018913 0
0.16575375 0.28476685 0.47469899 0
0.16650233 0.28362858 0.47329077 0
0.15592703 0.28632873 0.48692095 0
0.14429861 0.28812051 0.50170398 0
0.11972269 0.2906183 0.53441107 0
0.11946978 0.29066825 0.53415781 0
0.11244585 0.29208452 0.54241502 0
0.30141628 0.27036098 0.309136 0
0.29113242 0.27089927 0.32158554 0
0.2856068 0.27166203 0.32825196 0
0.26990026 0.27325311 0.34773692 0
0.26052567 0.27478856 0.35937324 0
0.24266185 0.27674747 0.3805477 0
0.24069491 0.27695307 0.38331604 0
0.23799631 0.27804622 0.3864449 0
0.2145174 0.28091189 0.41542089 0
0.17017721 0.28586912 0.46880057 0
0.16807434 0.28622067 0.47176456 0
0.15255906 0.28926861 0.49257088 0
0.14573207 0.2889317 0.50040162 0
0.14486307 0.29028964 0.50178349 0
0.33156204 0.26793328 0.2723738 0
0.300313 0.27145514 0.31019878 0
0.29239866 0.27374554 0.32048985 0
0.27201208 0.27524188 0.34486103 0
0.2655797 0.27539161 0.35296345 0
0.26272893 0.27659476 0.35700288 0
0.23812306 0.27996561 0.38653278 0
0.2391845 0.27885619 0.38512877 0
0.22855867 0.28194201 0.39840534 0
0.21550858 0.2831243 0.41446728 0
0.19911519 0.28442138 0.43405056 0
0.14375722 0.29121888 0.50364935 0
0.14193967 0.29321909 0.50642258 0
0.12671258 0.29324135 0.52600223 0
0.32005197 0.271824 0.2863386 0
0.30446404 0.27445745 0.30609873 0
0.30017442 0.27341023 0.31011581 0
0.28876972 0.2749745 0.32442349 0
0.28291214 0.27531922 0.33117241 0
0.28023624 0.27635652 0.33500472 0
0.21773508 0.28512475 0.41191834 0
0.20012131 0.28701282 0.43282524 0
0.18599576 0.28765839 0.45021021 0
0.17153347 0.29095715 0.46883589 0
0.15412274 0.29199722 0.49126831 0
0.1407513 0.29422721 0.50772595 0
0.13129404 0.29575655 0.51977974 0
0.33052 0.2727645 0.27326483 0
0.31339926 0.27425504 0.29505792 0
0.30647576 0.27632967 0.30344093 0
0.30142307 0.27625871 0.30887735 0
0.29594326 0.27607372 0.31482562 0
0.27665311 0.27962103 0.33955148 0
0.27461046 0.28008515 0.34206504 0
0.25141013 0.28301156 0.37133065 0
0.23281854 0.28461847 0.39441419 0
0.22969043 0.2857126 0.39815065 0
0.22032662 0.28775781 0.41020197 0
0.21660432 0.2862356 0.41342053 0
0.20165271 0.28790772 0.4315002 0
0.16010574 0.29474244 0.48420084 0
0.11995642 0.30023351 0.53406405 0
0.33277327 0.27511206 0.27087942 0
0.33031702 0.27509633 0.27312163 0
0.30061755 0.27932599 0.3103976 0
0.27792671 0.28083426 0.33748212 0
0.27415115 0.28156152 0.34342644 0
0.26328081 0.28236991 0.35679528 0
0.24702948 0.28517377 0.3766779 0
0.24105111 0.2860114 0.38483763 0
0.23517708 0.28608152 0.39182708 0
0.23107648 0.28854144 0.39709309 0
0.23119888 0.2864657 0.39721969 0
0.22425777 0.28739667 0.40476188 0
0.22217533 0.28770295 0.407498 0
0.2190606 0.28866866 0.41136175 0
0.18381336 0.29264611 0.45427084 0
0.15220261 0.29794028 0.49381021 0
0.26210237 0.28509042 0.35987124 0
0.25866568 0.28540561 0.36324188 0
0.25288558 0.28739902 0.37016165 0
0.23344906 0.2883687 0.39425832 0
0.15305001 0.29899389 0.49228919 0
0.33186615 0.27772933 0.27231154 0
0.32548797 0.27989528 0.27983385 0
0.3050454 0.28217131 0.30608946 0
0.29586488 0.28227794 0.31671849 0
0.26950422 0.28692067 0.35036913 0
0.26975116 0.28608811 0.34959823 0
0.26825616 0.2868675 0.35178566 0
0.19252546 0.29617074 0.44338134 0
0.12188368 0.30637848 0.53123581 0
0.33419138 0.27936736 0.26956397 0
0.33123881 0.28156722 0.27382687 0
0.30675414 0.28397915 0.30478296 0
0.29038393 0.28631574 0.32438591 0
0.28208399 0.2879802 0.3347308 0
0.24776641 0.29299617 0.37658274 0
0.23975444 0.2934536 0.38626128 0
0.22992435 0.29485944 0.39803699 0
0.20669794 0.2967591 0.42638156 0
0.19079465 0.29940104 0.44572595 0
0.13853571 0.30629897 0.51086193 0
0.12505981 0.30747348 0.52728146 0
0.12508065 0.30943719 0.52739769 0
0.19084948 0.30142745 0.44569981 0
0.18751018 0.30230162 0.44977751 0
0.17444651 0.30471972 0.46591157 0
0.30851826 0.28925058 0.30151042 0
0.27864653 0.29211563 0.33825883 0
0.27441752 0.29260102 0.34359965 0
0.25803444 0.29615358 0.36382207 0
0.20244962 0.30304199 0.4314664 0
0.14613381 0.30943024 0.5014506 0
0.13521683 0.31125277 0.51511973 0
0.094761588 0.31703734 0.56376058 0
0.32840523 0.28828764 0.27720484 0
0.31778494 0.28853863 0.29052478 0
0.30452791 0.29102451 0.30678841 0
0.29994664 0.29079628 0.31245056 0
0.29824927 0.29294977 0.3147938 0
0.2646068 0.29602021 0.35555002 0
0.24329223 0.29891646 0.38241476 0
0.21809104 0.30159017 0.41250309 0
0.21696512 0.30263007 0.41373095 0
0.18068847 0.30848509 0.45820379 0
0.16217613 0.30931807 0.48096973 0
0.13271478 0.31420189 0.51789099 0
0.12589496 0.31439728 0.52582556 0
0.12394591 0.31642917 0.52858865 0
0.29986766 0.29463693 0.31191489 0
0.20340966 0.30786321 0.43049547 0
0.1916602 0.30799013 0.44461352 0
0.14482185 0.31439504 0.5028739 0
0.33698058 0.2905671 0.26651001 0
0.33267239 0.29230601 0.27212694 0
0.32796779 0.29223698 0.27710527 0
0.30752176 0.29398531 0.30249679 0
0.30329242 0.29570794 0.30838361 0
0.30108544 0.29581097 0.31058511 0
0.29904503 0.29557243 0.31321976 0
0.22544491 0.30659935 0.40316552 0
0.20647594 0.30889791 0.42589056 0
0.10337569 0.32302058 0.55360293 0
0.10027827 0.32415527 0.55708325 0
0.32204562 0.29475749 0.28520375 0
0.30199891 0.29682481 0.30921838 0
0.28412578 0.301301 0.33163854 0
0.2407304 0.30624643 0.38464683 0
0.23542908 0.30755827 0.39131808 0
0.23198617 0.30855459 0.39513513 0
0.18867142 0.31270885 0.44789603 0
0.14774372 0.31785011 0.4986589 0
0.1262393 0.32221508 0.5256412 0
0.31961375 0.29850847 0.28798556 0
0.18761863 0.31556615 0.44935489 0
0.31089669 0.30097827 0.2983335 0
0.28576422 0.30439511 0.32889822 0
0.28273883 0.30532619 0.33316588 0
0.26976746 0.30562797 0.34876639 0
0.25457337 0.3081671 0.36685634 0
0.24691746 0.3090933 0.37694153 0
0.20729207 0.31485856 0.4248091 0
0.16430148 0.32066914 0.47812256 0
0.15245897 0.32255909 0.49301022 0
0.12699184 0.32721573 0.52398759 0
0.34195328 0.29934755 0.25994813 0
0.33685803 0.3000654 0.26672259 0
0.32142687 0.30255887 0.28530329 0
0.28186762 0.30651069 0.33450669 0
0.22846526 0.31449682 0.39931607 0
0.19638695 0.31962603 0.4381713 0
0.13081352 0.32884124 0.51911885 0
0.33444899 0.30202788 0.26911139 0
0.32136649 0.30449194 0.28516522 0
0.30751425 0.30580187 0.30209377 0
0.29848734 0.30762255 0.31356475 0
0.28377423 0.30822536 0.33153343 0
0.23725457 0.315166 0.38843688 0
0.21619941 0.3191227 0.41424483 0
0.21049026 0.31970236 0.4209635 0
0.1985788 0.32149431 0.43546343 0
0.17250068 0.32383019 0.46803626 0
0.10198161 0.33402902 0.55446738 0
0.30813324 0.30878907 0.3012377 0
0.29535627 0.30916336 0.31735513 0
0.29086167 0.30952638 0.322606 0
0.29174715 0.31048504 0.32115442 0
0.27740327 0.3125757 0.33942178 0
0.26980451 0.31348744 0.34853286 0
0.23373303 0.31825918 0.39246938 0
0.20627083 0.32215843 0.42589653 0
0.19642514 0.32358143 0.43804839 0
0.3213183 0.30838031 0.28492957 0
0.29795673 0.31157738 0.31322762 0
0.29629228 0.31213415 0.31585562 0
0.27773178 0.31450644 0.33956003 0
0.265535 0.31517607 0.35364863 0
0.24427573 0.32018518 0.37964004 0
0.20844629 0.32413563 0.42327672 0
0.20840949 0.32433626 0.42327407 0
0.18568683 0.32628092 0.45139039 0
0.1620115 0.33081812 0.48072875 0
0.12440151 0.33680028 0.52698255 0
0.332284 0.308038 0.27175975 0
0.32960126 0.31014889 0.27412659 0
0.31029496 0.3124989 0.29858428 0
0.30647591 0.31260908 0.3036752 0
0.28885967 0.31510392 0.32526144 0
0.25306603 0.32016248 0.3688668 0
0.23927371 0.32108086 0.38588679 0
0.19886239 0.32737827 0.43535322 0
0.17961559 0.33047774 0.45837703 0
0.1369675 0.3370783 0.51096541 0
0.31691912 0.31378222 0.29049617 0
0.29180926 0.31626636 0.32108316 0
0.29293001 0.31725776 0.31977418 0
0.24760269 0.32340851 0.37530866 0
0.24413818 0.32450238 0.37919703 0
0.23922461 0.325032 0.38545737 0
0.21045646 0.32814825 0.42063349 0
0.20291379 0.3293871 0.42979687 0
0.17259184 0.33424944 0.46708539 0
0.13677825 0.33933064 0.51156902 0
0.13568334 0.33834946 0.51287353 0
0.3386761 0.31218353 0.26349992 0
0.33511445 0.31287441 0.26763961 0
0.32436433 0.31502834 0.28112203 0
0.29524314 0.31872049 0.31727785 0
0.28964582 0.31828776 0.32370514 0
0.16048056 0.33748373 0.48220739 0
0.15217318 0.33968118 0.49228129 0
0.32961935 0.31593645 0.27446118 0
0.24122441 0.32896221 0.38269225 0
0.22538114 0.33160448 0.40237856 0
0.22012487 0.33152312 0.40829584 0
0.16944021 0.33765697 0.47120789 0
0.16410598 0.34052902 0.47763681 0
0.33854067 0.3160823 0.26337266 0
0.28180015 0.32474792 0.33308715 0
0.25926426 0.3283549 0.36071008 0
0.25475624 0.32827476 0.36622727 0
0.23777527 0.33044839 0.38685691 0
0.22680619 0.33370811 0.39986736 0
0.20259517 0.33510113 0.42999718 0
0.20358121 0.33637041 0.42896336 0
0.15001379 0.34383082 0.49500081 0
0.33600658 0.31912214 0.26676252 0
0.32841504 0.32077277 0.27602813 0
0.32082281 0.32194385 0.28507116 0
0.29608557 0.32612023 0.31527421 0
0.2748324 0.32856381 0.34141397 0
0.272423 0.32812673 0.34527549 0
0.26679504 0.3290377 0.35142586 0
0.20241305 0.33934197 0.43000379 0
0.2025141 0.33739161 0.43017143 0
0.1762206 0.34115735 0.46218154 0
0.17413297 0.34310085 0.46475405 0
0.12762025 0.35025597 0.52152884 0
0.33883715 0.32025325 0.26273975 0
0.3189801 0.32402554 0.28781983 0
0.28481248 0.32797295 0.32907125 0
0.28480604 0.32991484 0.32904914 0
0.28395182 0.32890335 0.3303138 0
0.26187968 0.33140513 0.35649401 0
0.23328337 0.33727226 0.39195278 0
0.19150652 0.34325296 0.44359991 0
0.12213213 0.35307801 0.52816999 0
0.10115195 0.35491383 0.5538519 0
0.31649354 0.32578781 0.29025128 0
0.26468804 0.33350092 0.35352278 0
0.25518018 0.33450499 0.36550754 0
0.22570583 0.34057057 0.40107119 0
0.2191419 0.34051627 0.40927327 0
0.21795812 0.34134403 0.41063461 0
0.17226385 0.34779906 0.4670172 0
0.16140325 0.34785491 0.48050854 0
0.15934342 0.34823361 0.48273933 0
0.124237 0.35314763 0.5253042 0
0.11913995 0.35419217 0.531968 0
0.10193054 0.35762581 0.55284822 0
0.09885712 0.35680574 0.5565396 0
0.32388943 0.32658938 0.28086606 0
0.31200874 0.33000717 0.29513279 0
0.2112581 0.34482288 0.41848451 0
0.17113163 0.34903729 0.46792582 0
0.1075479 0.35848787 0.5460816 0
0.10200556 0.35957634 0.5527336 0
0.28946435 0.33398649 0.3227936 0
0.19984159 0.34710994 0.43259212 0
0.16355695 0.35421392 0.47723481 0
0.1369663 0.35670593 0.50969076 0
0.099875435 0.36178064 0.55514485 0
0.30686399 0.33491647 0.30186516 0
0.2662037 0.34112275 0.35134795 0
0.23980895 0.34486559 0.38362217 0
0.16945446 0.35411072 0.47048849 0
0.1254814 0.35999793 0.52410913 0
0.12236653 0.36111799 0.52764297 0
0.33840364 0.3318722 0.26270542 0
0.33267099 0.33261454 0.26976371 0
0.32712603 0.33327964 0.27630457 0
0.32201985 0.33404303 0.28304973 0
0.28290099 0.34109551 0.33078468 0
0.26522237 0.34207344 0.35279539 0
0.25575429 0.34389749 0.36403388 0
0.24269886 0.34514788 0.38011017 0
0.23643044 0.34601462 0.38736436 0
0.23438363 0.34813371 0.39012918 0
0.17438278 0.35570511 0.46384549 0
0.17431366 0.35571516 0.46390453 0
0.1646598 0.35712501 0.47580713 0
0.14795284 0.36024523 0.49616516 0
0.11987621 0.3650986 0.53017122 0
0.11867043 0.36338913 0.5316329 0
0.28479576 0.34295774 0.32813004 0
0.28411552 0.34199366 0.32964623 0
0.24390814 0.34800869 0.37839314 0
0.24140093 0.34790495 0.3809393 0
0.23888755 0.34976527 0.38463637 0
0.18118542 0.35644427 0.45516834 0
0.12835044 0.36511177 0.51999211 0
0.1118338 0.36772057 0.5399946 0
0.33141214 0.33752561 0.27099365 0
0.28483266 0.34488341 0.32822844 0
0.28089964 0.34445456 0.33287945 0
0.27251634 0.34640279 0.34317952 0
0.2663928 0.34633362 0.35104507 0
0.26476493 0.34748682 0.35216933 0
0.26140285 0.34666383 0.357068 0
0.2399333 0.35190237 0.38281643 0
0.1811749 0.35841459 0.45509598 0
0.16005707 0.36329627 0.48058635 0
0.1251411 0.36825454 0.52319747 0
0.33578259 0.33974415 0.26577249 0
0.32166219 0.34185669 0.28269851 0
0.29436943 0.34425795 0.31591383 0
0.27872419 0.34653258 0.33530092 0
0.27115577 0.34752476 0.34504372 0
0.26594567 0.34871435 0.35126567 0
0.26218474 0.34966058 0.35586196 0
0.2176114 0.35677609 0.41015014 0
0.18409842 0.36135387 0.45117491 0
0.16219164 0.36527583 0.47820428 0
0.15799548 0.36524469 0.48339134 0
0.14147997 0.36838835 0.50372881 0
0.1018071 0.37362298 0.5521974 0
0.33584586 0.34150559 0.26610035 0
0.32812071 0.34224963 0.27498853 0
0.29563355 0.34706295 0.31461954 0
0.27125797 0.34985206 0.34479126 0
0.26820135 0.3508563 0.34874058 0
0.25977841 0.3517507 0.35847232 0
0.17107184 0.36545086 0.46706709 0
0.16887207 0.36676329 0.47017682 0
0.15574944 0.36735523 0.48591173 0
0.33434325 0.34249344 0.26692027 0
0.33128667 0.34333649 0.27085039 0
0.3301838 0.34411469 0.27217987 0
0.32911432 0.34314901 0.27351272 0
0.29112127 0.34898481 0.32021192 0
0.27632895 0.35185242 0.33873725 0
0.26802298 0.35279348 0.34843144 0
0.24137318 0.35673869 0.38103685 0
0.22168984 0.36113003 0.4049136 0
0.18059216 0.36570552 0.45556983 0
0.13686565 0.37257293 0.50856388 0
0.32799095 0.34612042 0.27476946 0
0.32133201 0.34775195 0.28301695 0
0.27358568 0.353609 0.34112525 0
0.254792 0.3570151 0.36482486 0
0.15885878 0.37215471 0.48211122 0
0.114215 0.37961 0.53643066 0
0.32015213 0.35076806 0.28438118 0
0.26058933 0.35857582 0.35689691 0
0.23194259 0.36420736 0.39215511 0
0.21756721 0.36492962 0.40953356 0
0.19038638 0.37023643 0.44259769 0
0.17665033 0.37241098 0.45957032 0
0.15910108 0.37491056 0.48178935 0
0.33307889 0.34935343 0.26812699 0
0.29511854 0.3566739 0.31457964 0
0.27561271 0.35969505 0.33831298 0
0.26702723 0.35971129 0.3492378 0
0.25910634 0.36070606 0.35896066 0
0.22414929 0.36717069 0.40083209 0
0.1863756 0.37329337 0.44752124 0
0.16180855 0.37525812 0.47782969 0
0.16197307 0.3768796 0.47781032 0
0.1604353 0.37751064 0.48275179 0
0.33495536 0.35146415 0.26534879 0
0.33397359 0.35229644 0.26676854 0
0.32660088 0.35336584 0.27584296 0
0.32315555 0.35269505 0.28011718 0
0.31309599 0.35499692 0.29277885 0
0.30691954 0.35670844 0.30028579 0
0.22687474 0.36732596 0.39797753 0
0.21919179 0.37049612 0.40655017 0
0.20235127 0.37263298 0.42753187 0
0.14413208 0.38220122 0.50192761 0
0.14692487 0.38394132 0.52337402 0
0.32638952 0.35565555 0.27622953 0
0.3228699 0.35651824 0.28005645 0
0.32523283 0.3546361 0.27747151 0
0.3078607 0.35771734 0.29889768 0
0.30565819 0.35958174 0.30155206 0
0.30578172 0.35765538 0.30153099 0
0.27795032 0.36343092 0.33543515 0
0.2654978 0.36523438 0.35023135 0
0.23871392 0.36967033 0.38388166 0
0.23180239 0.37020719 0.39148682 0
0.18998918 0.37656441 0.44382143 0
0.14993985 0.38570884 0.52118707 0
0.13008159 0.38863358 0.54525268 0
0.33580428 0.3560341 0.26436263 0
0.33699006 0.35702536 0.26317051 0
0.32515439 0.35819766 0.2772871 0
0.30443773 0.36042589 0.30288383 0
0.29316306 0.36247212 0.31743282 0
0.27294061 0.36528993 0.34143898 0
0.26377016 0.36721063 0.35258517 0
0.26161137 0.36713907 0.35539702 0
0.2555646 0.36745957 0.36264262 0
0.32747418 0.36016899 0.27439275 0
0.3186304 0.36190602 0.28548342 0
0.31992301 0.36166024 0.28376946 0
0.28807124 0.36464578 0.32266727 0
0.27876246 0.36651945 0.33383048 0
0.26984122 0.36897209 0.34468022 0
0.26979297 0.36897922 0.34472701 0
0.26369166 0.36916018 0.35250524 0
0.23440272 0.3736639 0.38741845 0
0.22234665 0.3752836 0.40058956 0
0.17933363 0.38458979 0.48090026 0
0.14926919 0.38970459 0.52104205 0
0.13474005 0.39264295 0.53897583 0
0.13473901 0.39264488 0.53897488 0
0.11302415 0.39558879 0.56567895 0
0.33933455 0.35952687 0.25954953 0
0.23235962 0.37593654 0.39403424 0
0.16858782 0.38896978 0.49764481 0
0.11499427 0.39746556 0.56327885 0
0.33924365 0.36133274 0.25960246 0
0.32446888 0.3652629 0.27840742 0
0.31548658 0.36591893 0.28926879 0
0.31370264 0.3660875 0.29144424 0
0.28702268 0.369562 0.32391554 0
0.27916196 0.37116638 0.33240312 0
0.21325231 0.38345993 0.44164637 0
0.19537202 0.38639799 0.46443331 0
0.13936514 0.39462656 0.53355694 0
0.1158834 0.39839825 0.56173551 0
0.11411533 0.40027776 0.56441921 0
0.3022244 0.37063622 0.30572712 0
0.2909039 0.37156266 0.31777108 0
0.18918765 0.38982108 0.47154078 0
0.17594816 0.39176086 0.48779234 0
0.13196155 0.3981306 0.54242903 0
0.13172197 0.40012926 0.5423122 0
0.33668017 0.36736506 0.26080418 0
0.2785137 0.37716633 0.35884145 0
0.26957309 0.38077286 0.37243193 0
0.26390952 0.38019007 0.37917113 0
0.26388109 0.38016507 0.37919196 0
0.25940976 0.38071942 0.38455522 0
0.25419879 0.38275832 0.39114949 0
0.23386803 0.38570487 0.41583717 0
0.22191794 0.38825801 0.43108323 0
0.21966264 0.38837996 0.43385047 0
0.16720363 0.39548978 0.49886253 0
0.15043312 0.39875779 0.51978111 0
0.14323384 0.39863411 0.52810496 0
0.09496209 0.40721375 0.58488697 0
0.2957415 0.37881032 0.34034741 0
0.26690644 0.38304979 0.37523469 0
0.24543375 0.38485384 0.40177163 0
0.2362963 0.38736936 0.41304651 0
0.21407831 0.39107153 0.44052982 0
0.18907692 0.39423802 0.47113913 0
0.18780869 0.39492321 0.47251958 0
0.17087804 0.39757946 0.49323684 0
0.14995956 0.40061596 0.51953995 0
0.12871705 0.40315452 0.54611057 0
0.28600216 0.38187891 0.35271561 0
0.23284423 0.38897461 0.41721684 0
0.18889299 0.39577594 0.47117177 0
0.19001065 0.39664149 0.46979621 0
0.13264473 0.40488344 0.54048961 0
0.12851787 0.40711969 0.54580259 0
0.31548938 0.37920177 0.31609368 0
0.30664667 0.38128993 0.3270193 0
0.29512325 0.38292184 0.34137529 0
0.24653259 0.38972086 0.40023762 0
0.24205729 0.3896904 0.4058817 0
0.23508549 0.39282411 0.41437644 0
0.17944454 0.39961895 0.48219678 0
0.16555351 0.4021208 0.50020063 0
0.16449393 0.40309235 0.50152916 0
0.16354689 0.40403241 0.50298715 0
0.10006253 0.41223493 0.58009726 0
0.34841478 0.37579253 0.2757459 0
0.34086639 0.37742859 0.28466582 0
0.29819682 0.38383442 0.33747178 0
0.2939344 0.38380784 0.34276304 0
0.28391087 0.38566756 0.35503098 0
0.2781269 0.38815546 0.36163011 0
0.19305211 0.40001231 0.4659152 0
0.10097176 0.41533384 0.57871276 0
0.3590706 0.37700808 0.26164642 0
0.35706902 0.3767215 0.26504809 0
0.30349758 0.38604397 0.33133346 0
0.27736002 0.38908708 0.3630881 0
0.26619583 0.39175311 0.3763698 0
0.24647051 0.39367211 0.40027058 0
0.20441648 0.40075755 0.45148978 0
0.20452236 0.40052575 0.45142263 0
0.10156263 0.41773868 0.57776785 0
0.31922793 0.38604921 0.31114763 0
0.30748716 0.38588747 0.32590398 0
0.29075146 0.38955873 0.34655222 0
0.28400308 0.38977513 0.35469738 0
0.27686414 0.39099377 0.36325991 0
0.24414486 0.39755994 0.40295994 0
0.20749952 0.40358612 0.44719812 0
0.19611916 0.40534842 0.46122107 0
0.15096162 0.41256583 0.51676148 0
0.11107898 0.41834202 0.56686085 0
0.33464661 0.38471386 0.29248893 0
0.29145849 0.39262801 0.34510362 0
0.28954995 0.39248404 0.34778085 0
0.27922615 0.39378279 0.35958338 0
0.26027638 0.39677083 0.38295239 0
0.22545354 0.40229431 0.4253383 0
0.22434404 0.40319812 0.42663747 0
0.21185222 0.40532956 0.44163767 0
0.21082655 0.40476885 0.44327918 0
0.20652503 0.40459228 0.44860482 0
0.17838486 0.41057792 0.48337719 0
0.12811886 0.41681436 0.54591769 0
0.30393714 0.39109686 0.32959667 0
0.2995221 0.39205787 0.33541042 0
0.22658357 0.40528628 0.42396027 0
0.21072796 0.40670836 0.44347477 0
0.18370903 0.4116722 0.47658801 0
0.1375744 0.41810906 0.53357857 0
0.13001278 0.41894642 0.54306096 0
0.12554359 0.42096934 0.54836631 0
0.33292967 0.38891301 0.29364887 0
0.33075267 0.38885745 0.29639786 0
0.32099119 0.39224577 0.30840167 0
0.31945741 0.39200285 0.31060553 0
0.25692904 0.40208629 0.38702145 0
0.22221091 0.40726054 0.42904055 0
0.21233988 0.4091697 0.44176537 0
0.1886341 0.41291213 0.46964106 0
0.16172725 0.41795141 0.50377172 0
0.14789334 0.41961309 0.520841 0
0.36322707 0.38732314 0.25665349 0
0.35861886 0.38750958 0.26195329 0
0.34247708 0.39033353 0.28193381 0
0.34215987 0.39007095 0.28231138 0
0.33998743 0.38994297 0.28465798 0
0.32988968 0.39177102 0.29764372 0
0.32316673 0.39231727 0.30574563 0
0.31467402 0.39371836 0.31620795 0
0.30870557 0.39594656 0.32316735 0
0.22756562 0.4083392 0.42261806 0
0.21343011 0.41003764 0.44007617 0
0.175825 0.41671106 0.48598394 0
0.16058002 0.41902745 0.5049426 0
0.15401633 0.42163855 0.51271904 0
0.35852051 0.38950706 0.26196322 0
0.3313233 0.39405656 0.29519624 0
0.29661539 0.39978072 0.33807805 0
0.29429537 0.39958951 0.34087902 0
0.2844767 0.40213579 0.35284951 0
0.25132674 0.40649521 0.39364547 0
0.2459987 0.40745074 0.40004122 0
0.22093058 0.41094708 0.43060389 0
0.20310475 0.41502601 0.45244065 0
0.19904338 0.41501713 0.45745218 0
0.18672587 0.41693807 0.47236365 0
0.17237268 0.41961455 0.48981738 0
0.14077869 0.4251731 0.52901733 0
0.13073327 0.42590797 0.54141551 0
0.36388019 0.39089373 0.25500503 0
0.33706293 0.39497313 0.28828189 0
0.32796314 0.39705336 0.29914603 0
0.32692948 0.39614081 0.30055267 0
0.32424664 0.39706126 0.30404136 0
0.28533497 0.40321073 0.35144609 0
0.27557898 0.40485969 0.36352175 0
0.272542 0.40569374 0.36770672 0
0.25455654 0.40800151 0.38976449 0
0.24772207 0.40928587 0.39752284 0
0.23622109 0.41056183 0.41178444 0
0.23294081 0.41149616 0.41583243 0
0.17759755 0.42105657 0.48307097 0
0.13737479 0.42829868 0.53298748 0
0.13616034 0.42735246 0.53491068 0
0.11910428 0.43139568 0.55509913 0
0.36371219 0.39281034 0.25499502 0
0.34661013 0.39639372 0.27638778 0
0.33917242 0.3965708 0.28576058 0
0.33453906 0.39879209 0.29104257 0
0.33562037 0.39790374 0.2896277 0
0.31296408 0.40206707 0.31756139 0
0.29616964 0.40373954 0.33802554 0
0.28777555 0.40530989 0.34826007 0
0.26156849 0.40902898 0.3806724 0
0.25635538 0.40990934 0.38696399 0
0.25738928 0.41072229 0.38568947 0
0.18195717 0.42295256 0.47764063 0
0.16742565 0.425699 0.49585778 0
0.12707165 0.43269289 0.54558122 0
0.32909378 0.40174845 0.29768348 0
0.3085309 0.40364808 0.32292825 0
0.24126777 0.41533443 0.40504009 0
0.23501737 0.41562554 0.41275361 0
0.22271426 0.41932741 0.42772061 0
0.1994144 0.42207491 0.45600671 0
0.18180147 0.42493179 0.4776797 0
0.17963579 0.42473012 0.4803181 0
0.12693238 0.43467957 0.5454759 0
0.12029894 0.43451911 0.55336636 0
0.36441156 0.39779899 0.25338551 0
0.35923231 0.39709193 0.26024979 0
0.32554007 0.40273279 0.30150658 0
0.31129673 0.40492561 0.31899694 0
0.26042971 0.41389292 0.38171071 0
0.23987597 0.41838109 0.4062556 0
0.21808815 0.42095008 0.43277124 0
0.2003428 0.42312783 0.45454028 0
0.17371699 0.42832255 0.4875991 0
0.14236692 0.43331128 0.5261032 0
0.33201951 0.40466619 0.29353458 0
0.31773368 0.40726095 0.31113908 0
0.3082146 0.40838903 0.32260248 0
0.29716715 0.41058007 0.33677381 0
0.29604119 0.40967032 0.33805397 0
0.2536338 0.41793305 0.38956493 0
0.23635103 0.42106217 0.41028586 0
0.23435967 0.42105335 0.41321212 0
0.21575946 0.4249903 0.43530691 0
0.19908024 0.42740718 0.45615858 0
0.20028374 0.42673451 0.45479915 0
0.17027596 0.43112582 0.49157149 0
0.16267295 0.43348619 0.50099516 0
0.13907254 0.43620986 0.52998799 0
0.13668074 0.43609163 0.53283638 0
0.13368276 0.43732277 0.53699309 0
0.13264833 0.43825573 0.53842461 0
0.3575584 0.40333563 0.26203176 0
0.35521942 0.4030742 0.26474285 0
0.34378731 0.40525377 0.2788209 0
0.31190556 0.41110176 0.31846866 0
0.30965951 0.4110409 0.3213309 0
0.29823688 0.41158748 0.33559048 0
0.24069852 0.42144969 0.40500602 0
0.23847766 0.42141065 0.40766144 0
0.23308727 0.42394999 0.41425821 0
0.1900937 0.43060142 0.46684498 0
0.18917054 0.42959777 0.46823773 0
0.18528274 0.43046206 0.47239912 0
0.18422495 0.43156672 0.47338197 0
0.18331996 0.43259001 0.47482526 0
0.17338616 0.43343931 0.48725829 0
0.17223369 0.43434307 0.48867416 0
0.13678353 0.43817917 0.53278273 0
0.1224345 0.44265872 0.55057871 0
0.34495407 0.40642956 0.27777606 0
0.33603048 0.4091194 0.28872719 0
0.32526255 0.41060486 0.3014794 0
0.3232964 0.41018391 0.30420884 0
0.31154126 0.41309196 0.31831121 0
0.2499055 0.42226592 0.39291468 0
0.25110775 0.42326123 0.39180821 0
0.23524022 0.42413232 0.41151029 0
0.21773468 0.42706203 0.43255046 0
0.18644679 0.43355551 0.47078821 0
0.18512477 0.43241158 0.47246656 0
0.18426529 0.4335373 0.47330174 0
0.17205282 0.43632969 0.48859259 0
0.16886187 0.43731797 0.49274448 0
0.16004699 0.43810922 0.50375342 0
0.1546392 0.43806708 0.51069295 0
0.15149195 0.438934 0.51442242 0
0.13563873 0.44131365 0.53415298 0
0.35260648 0.40770653 0.26830995 0
0.3272621 0.4126516 0.29878783 0
0.31509984 0.41363448 0.3137534 0
0.29085994 0.41709203 0.34349599 0
0.28017703 0.42043552 0.35678563 0
0.26701695 0.42108738 0.37281051 0
0.25904477 0.42293063 0.38225752 0
0.24973208 0.42427203 0.39286873 0
0.19991222 0.43247113 0.45456097 0
0.18416962 0.43548697 0.4733251 0
0.17701744 0.43753225 0.48211646 0
0.17411856 0.43835321 0.48601314 0
0.16553645 0.43812791 0.49660963 0
0.15657395 0.44065335 0.5076533 0
0.15343502 0.44120863 0.51158816 0
0.12214126 0.4464857 0.5505991 0
0.36383137 0.40890953 0.25397173 0
0.36165398 0.40878481 0.25661042 0
0.34758615 0.41117185 0.27416652 0
0.33891714 0.41208801 0.28459939 0
0.31463081 0.41733474 0.31366625 0
0.29536778 0.41922531 0.33796439 0
0.29179984 0.42016533 0.34221435 0
0.25665978 0.42672706 0.38476697 0
0.24689326 0.42714348 0.39682293 0
0.23474948 0.43002298 0.41145149 0
0.22928199 0.43098545 0.41805246 0
0.21137503 0.43315974 0.44035855 0
0.21238858 0.43416449 0.43899217 0
0.20783445 0.43368331 0.44436175 0
0.20593137 0.43350461 0.44733039 0
0.19823994 0.43565142 0.45633593 0
0.15701504 0.44248837 0.50719857 0
0.14380851 0.44582051 0.52397585 0
0.12241888 0.44960693 0.54921722 0
0.11266771 0.45024383 0.56094539 0
0.11070507 0.44991553 0.56380773 0
0.10964502 0.45072746 0.56525809 0
0.36072087 0.40974775 0.25796089 0
0.35858172 0.41184911 0.26029536 0
0.34948778 0.41322395 0.27130949 0
0.34113318 0.41497299 0.28183445 0
0.3332347 0.4150835 0.29090488 0
0.33443999 0.41621071 0.28987092 0
0.20999165 0.43606672 0.44187257 0
0.19053586 0.43820751 0.46545208 0
0.18397164 0.43959051 0.4736717 0
0.17771877 0.44254491 0.48086077 0
0.16760892 0.44418305 0.49386188 0
0.15310155 0.4449923 0.51151568 0
0.11378423 0.45141283 0.55959845 0
0.10973849 0.45285457 0.56526428 0
0.33212721 0.41808641 0.29246107 0
0.32467738 0.41881073 0.30141175 0
0.31921011 0.41976976 0.30779678 0
0.24116713 0.43230399 0.40332055 0
0.23953038 0.43237224 0.40580058 0
0.20964824 0.43807811 0.44171548 0
0.19897115 0.44066432 0.4548997 0
0.19284004 0.44199878 0.46263725 0
0.16843055 0.44525868 0.49236408 0
0.12436542 0.45185983 0.54639727 0
0.12319941 0.45270535 0.5478121 0
0.34843093 0.41797322 0.2725738 0
0.34198666 0.41795206 0.28025028 0
0.33586949 0.41908586 0.28765783 0
0.32015219 0.42251864 0.30647677 0
0.31348214 0.42228913 0.31492773 0
0.30348259 0.42414856 0.32662213 0
0.29644153 0.42541444 0.33502641 0
0.29101911 0.42634434 0.3422462 0
0.28561562 0.42664152 0.34885782 0
0.27908224 0.42856541 0.35659167 0
0.27780876 0.42931992 0.35799035 0
0.25324929 0.43262574 0.38837537 0
0.23316348 0.43700984 0.41245624 0
0.22329743 0.43736547 0.42514378 0
0.20870106 0.44106001 0.44287309 0
0.17044193 0.44708374 0.4897778 0
0.14082018 0.45188588 0.52640772 0
0.12191609 0.45588428 0.54923433 0
0.3396838 0.41975197 0.28285715 0
0.30333295 0.42621315 0.32659113 0
0.29449719 0.42737871 0.33790922 0
0.24834216 0.4372412 0.39395979 0
0.22696754 0.43931785 0.42029279 0
0.21748847 0.44239148 0.43175632 0
0.15974963 0.45128563 0.50301576 0
0.36305016 0.4188576 0.25398153 0
0.35350904 0.42106342 0.2658661 0
0.35333732 0.42110801 0.26596361 0
