# .PCD v0.7 - Point Cloud Data file format
VERSION 0.7
FIELDS x y z intensity
SIZE 4 4 4 4
TYPE F F F F
COUNT 1 1 1 1
WIDTH 1359
HEIGHT 1
VIEWPOINT 0 0 0 1 0 0 0
POINTS 1359
DATA ascii
-0.034411326 0.34617743 -0.0604342 0
0.30717057 0.36686486 0.2231099 0
0.28360984 0.37900314 0.35594809 0
0.34962365 0.37077802 0.25724477 0
0.30524808 0.36958516 0.2022932 0
0.32630786 0.37663364 0.30369616 0
0.096318536 0.40889573 0.58464807 0
0.14016542 0.42605197 0.5303942 0
0.29953849 0.4193708 0.33290061 0
0.29075131 0.46354339 0.33888653 0
0.36443731 0.48183739 0.24663273 0
0.36128992 0.5166114 0.24737449 0
0.32240769 0.52378356 0.29571542 0
0.36234957 0.54037136 0.24414915 0
0.36166862 0.53940815 0.24571647 0
0.29094124 0.5540275 0.33171916 0
0.30155942 0.55703849 0.31893533 0
0.2265656 0.57460397 0.41033632 0
0.36249948 0.55640078 0.2423397 0
0.27554014 0.57185763 0.35008079 0
0.32763517 0.56795752 0.28585938 0
0.20854589 0.59230095 0.4312585 0
0.30605578 0.59079176 0.31037548 0
0.34737059 0.58747751 0.26068068 0
0.31685489 0.59473175 0.29677698 0
0.16685553 0.62376577 0.48084947 0
0.26376125 0.61186928 0.36110795 0
0.16770858 0.63083321 0.479837 0
0.35997561 0.62388325 0.24036673 0
0.28694651 0.64936686 0.33190593 0
0.12797323 0.68913931 0.52666754 0
0.26541471 0.66174716 0.35510093 0
0.3399041 0.64755923 0.26450214 0
0.26557398 0.66245526 0.3537609 0
0.14669785 0.69042104 0.5010888 0
0.11864045 0.6991244 0.53514099 0
0.36118662 0.65886265 0.2365831 0
0.28559893 0.67665511 0.33078995 0
0.155838 0.70717275 0.50683081 0
0.16054091 0.70702815 0.50653893 0
0.32928982 0.68888909 0.27547869 0
0.30068421 0.69904882 0.34496495 0
0.36145768 0.68744761 0.23858018 0
0.32803723 0.695472 0.27756247 0
0.3340469 0.69804054 0.27423134 0
0.087002337 0.68299693 -0.0043103062 0
0.17267372 0.6910215 0.074041873 0
0.33527017 0.69497192 0.20130146 0
0.062685251 -0.40913397 0.29525933 0
0.056677535 -0.40653145 0.31230262 0
0.065619446 -0.39898312 0.30303314 0
0.065057084 -0.39448029 0.30926129 0
0.059008703 -0.39351818 0.31893566 0
0.090429977 -0.37582755 0.30592766 0
0.083870478 -0.34536791 0.32844475 0
0.088931412 -0.34430185 0.32134753 0
0.094690122 -0.34000209 0.30973607 0
0.093895659 -0.33920407 0.3114101 0
0.090635568 -0.33905485 0.31710291 0
0.084314205 -0.33937269 0.3256391 0
0.088160224 -0.33730137 0.32012725 0
0.09257517 -0.33428943 0.30975962 0
0.093158647 -0.32897559 0.3090184 0
0.090316989 -0.31699142 0.32265323 0
0.094248578 -0.31367689 0.31993371 0
0.095293768 -0.31084475 0.31858638 0
0.093956523 -0.30995089 0.31913096 0
0.098113947 -0.30790174 0.31380272 0
0.097702049 -0.30401817 0.31425855 0
0.1142064 -0.26506814 0.27546069 0
0.10479529 -0.26187974 0.31185365 0
0.11593378 -0.25903398 0.29657969 0
0.088451996 -0.25395012 0.34663403 0
0.12977214 -0.25128409 0.25742337 0
0.12847373 -0.25211701 0.27070612 0
0.12484358 -0.25085109 0.29485658 0
0.090636574 -0.25022247 0.34880182 0
0.087544613 -0.25118411 0.35262945 0
0.087559745 -0.24985301 0.35473496 0
0.084143683 -0.25189528 0.35961857 0
0.13200679 -0.24840549 0.27099422 0
0.13290812 -0.24706064 0.27335253 0
0.13076897 -0.24704747 0.28466082 0
0.1358676 -0.24533375 0.24399823 0
0.088892683 -0.24286312 0.36360592 0
0.090558358 -0.24065082 0.36360332 0
0.14503017 -0.23526588 0.25413039 0
0.1340847 -0.23490898 0.30387247 0
0.093269274 -0.2360871 0.36514422 0
0.08967682 -0.23513286 0.37360582 0
0.14533009 -0.23395233 0.24358512 0
0.13892508 -0.23255059 0.29254907 0
0.13561204 -0.23157188 0.30571243 0
0.13417238 -0.2335535 0.30577236 0
0.09088327 -0.23201144 0.37509996 0
0.091002703 -0.23321514 0.37356171 0
0.066007115 -0.23401998 0.40270287 0
0.14712723 -0.2314641 0.23848 0
0.14291054 -0.22958173 0.28493032 0
0.14034034 -0.23053414 0.29286727 0
0.13835238 -0.23088779 0.29825443 0
0.097645782 -0.22699869 0.36642006 0
0.092034146 -0.22866975 0.3767527 0
0.14649409 -0.2247481 0.28277656 0
0.13855805 -0.2257601 0.30981791 0
0.15277407 -0.22290611 0.25406983 0
0.13551156 -0.22353104 0.31918082 0
0.09591645 -0.22359222 0.37323055 0
0.13657652 -0.22030202 0.32084531 0
0.099138059 -0.22175241 0.3681947 0
0.098937415 -0.22043866 0.36989427 0
0.15618195 -0.218522 0.24749826 0
0.045937024 -0.22024125 0.42718628 0
0.04304833 -0.21862166 0.43757623 0
0.040966071 -0.21898547 0.43933743 0
0.15519647 -0.21638237 0.25712478 0
0.13857982 -0.21610779 0.32090482 0
0.15622051 -0.21425386 0.25694376 0
0.091097698 -0.21238822 0.39367536 0
0.13761544 -0.21091865 0.32730469 0
0.097360402 -0.211583 0.38171315 0
0.15928096 -0.20980774 0.25536689 0
0.0944416 -0.20909859 0.39044178 0
0.13727096 -0.20463911 0.33164585 0
0.1376074 -0.20558095 0.33027878 0
0.10880286 -0.20570889 0.3645319 0
0.093048684 -0.20544253 0.39499387 0
0.048424326 -0.20739263 0.43307108 0
0.10245963 -0.20210297 0.37883967 0
0.098853894 -0.20269431 0.38598016 0
0.099848822 -0.19896039 0.38538596 0
0.15289056 -0.19745453 0.2741833 0
0.14338538 -0.19453995 0.32746679 0
0.13318515 -0.19665685 0.34045717 0
0.12586096 -0.19631799 0.34869131 0
0.11131991 -0.19661547 0.36634856 0
0.10729156 -0.19639824 0.3742601 0
0.14795159 -0.19367504 0.31809533 0
0.12456689 -0.19258949 0.35319781 0
0.11305069 -0.19398832 0.3647989 0
0.10872688 -0.19378828 0.37257096 0
0.10502975 -0.19453506 0.37873465 0
0.1139043 -0.18878987 0.36619854 0
0.099551648 -0.18799075 0.39223516 0
0.11204025 -0.18520971 0.37096903 0
0.11002608 -0.1866076 0.37424773 0
0.10796186 -0.1869137 0.37827352 0
0.10016952 -0.18585323 0.39211538 0
0.11309882 -0.18441665 0.36934471 0
0.16895403 -0.18179362 0.26262477 0
0.10028879 -0.18103077 0.39349157 0
0.15328461 -0.17920321 0.27915847 0
0.14697531 -0.17735566 0.32820871 0
0.15376444 -0.17715593 0.27904117 0
0.1458143 -0.1750308 0.33126891 0
0.10525243 -0.17603448 0.38756406 0
0.054864973 -0.17715399 0.43530703 0
0.14396182 -0.17460141 0.3340475 0
0.10857134 -0.17345861 0.38318551 0
0.10363507 -0.17240019 0.39204949 0
0.10526721 -0.17287953 0.38908947 0
0.17432804 -0.1727075 0.2607328 0
0.14211786 -0.17090316 0.3384403 0
0.11519724 -0.17092049 0.372832 0
0.05609446 -0.17101635 0.45541069 0
0.17477068 -0.17059772 0.26069155 0
0.10931552 -0.16886204 0.38404965 0
0.11446507 -0.16755681 0.37550685 0
0.10296784 -0.1661064 0.394927 0
0.052976228 -0.16645791 0.46475327 0
0.14592631 -0.1632694 0.33424118 0
0.14502499 -0.16103084 0.33723864 0
0.15175271 -0.16013196 0.32153305 0
0.1491054 -0.15857694 0.32964283 0
0.058176786 -0.15989888 0.43875483 0
0.14067888 -0.15708318 0.34588307 0
0.058635838 -0.15685302 0.46213526 0
0.056960531 -0.15425116 0.46839142 0
0.15027623 -0.15077691 0.32979283 0
0.13512397 -0.15071484 0.35622221 0
0.11243038 -0.1527921 0.38507354 0
0.14412686 -0.14911327 0.34346923 0
0.1134146 -0.14879993 0.38515183 0
0.10387857 -0.14808232 0.39760882 0
0.057074152 -0.14935748 0.4716343 0
0.15443356 -0.14809074 0.31551051 0
0.11614943 -0.14614384 0.38026583 0
0.18225783 -0.14553636 0.26862571 0
0.14389391 -0.14504614 0.34567019 0
0.14342982 -0.14386453 0.34711999 0
0.10832078 -0.14350311 0.39414701 0
0.058452889 -0.14533925 0.43992394 0
0.060227379 -0.14332807 0.47082555 0
0.15285251 -0.14198418 0.32227159 0
0.056368738 -0.14334546 0.43692413 0
0.056991778 -0.14050859 0.43866998 0
0.14670125 -0.13812391 0.34217131 0
0.1542677 -0.13622379 0.30123281 0
0.05584392 -0.13488068 0.44003323 0
0.063766569 -0.13234973 0.47213382 0
0.15426415 -0.13509572 0.29671046 0
0.15374219 -0.13520809 0.2995128 0
0.14729342 -0.13231888 0.34236374 0
0.11617582 -0.13116693 0.38498664 0
0.13871695 -0.12922762 0.35746786 0
0.15477997 -0.12598255 0.30128586 0
0.1466639 -0.12620503 0.3453106 0
0.14513016 -0.12405487 0.34825042 0
0.15438959 -0.12491769 0.3028816 0
0.12026091 -0.12194692 0.37917978 0
0.11703406 -0.12155965 0.38494539 0
0.11368984 -0.12303115 0.39093959 0
0.15436363 -0.12125576 0.3230713 0
0.11805015 -0.1207222 0.38348237 0
0.11394211 -0.12106647 0.39086539 0
0.065574929 -0.11795241 0.47956023 0
0.063175261 -0.1194815 0.48268038 0
0.15468013 -0.11806049 0.31412742 0
0.1484001 -0.1153379 0.34367913 0
0.12106401 -0.1160087 0.3792108 0
0.11938824 -0.11585002 0.38205913 0
0.11700924 -0.11476374 0.38683251 0
0.11542289 -0.11427056 0.38937137 0
0.11541148 -0.11636527 0.38942668 0
0.053312711 -0.11624971 0.4410525 0
0.15360138 -0.11452187 0.30250648 0
0.14424869 -0.11406525 0.35144424 0
0.14349157 -0.11308515 0.35290852 0
0.19653055 -0.11163614 0.26645318 0
0.15402725 -0.1132575 0.30798405 0
0.11297771 -0.11117848 0.39379478 0
0.064078048 -0.10832357 0.48864254 0
0.15382414 -0.11022799 0.30282226 0
0.064825282 -0.10661301 0.48814705 0
0.1541632 -0.1030225 0.31525165 0
0.067818999 -0.097881034 0.48685035 0
0.15325575 -0.10108954 0.31119195 0
0.15349951 -0.09902373 0.31141287 0
0.12031261 -0.097675182 0.38350177 0
0.11750867 -0.098466203 0.38945168 0
0.12078158 -0.093686596 0.38340431 0
0.1180077 -0.094399072 0.38769853 0
0.11576464 -0.093356505 0.39195272 0
0.20276541 -0.093062416 0.26652271 0
0.15321407 -0.092960544 0.31115925 0
0.15364087 -0.092001237 0.31347045 0
0.12501353 -0.092295319 0.3771818 0
0.11396294 -0.091229938 0.39477468 0
0.19882986 -0.088998951 0.27990544 0
0.15344077 -0.090961143 0.31517804 0
0.15158653 -0.08910799 0.33071482 0
0.115133 -0.08838404 0.39335385 0
0.1171929 -0.086657487 0.39043877 0
0.15019244 -0.085863478 0.33618969 0
0.14785472 -0.084708661 0.34506544 0
0.12513524 -0.081234239 0.37875828 0
0.11393135 -0.080357894 0.39602497 0
0.20216073 -0.079830863 0.27987513 0
0.15266114 -0.080128267 0.31504598 0
0.14786072 -0.080798499 0.34488225 0
0.11847829 -0.079686671 0.38868135 0
0.117021 -0.07957191 0.39169624 0
0.20611525 -0.079287067 0.27327687 0
0.12100606 -0.077104919 0.38425106 0
0.1525993 -0.077089235 0.3132453 0
0.12642288 -0.074293122 0.37700117 0
0.12468272 -0.074125409 0.37988755 0
0.1190186 -0.07386411 0.3886165 0
0.12020064 -0.071066774 0.38717091 0
0.11319438 -0.068535008 0.39887387 0
0.065978236 -0.066636071 0.4914051 0
0.20726888 -0.067449898 0.28074533 0
0.13035171 -0.065989316 0.37287262 0
0.1162051 -0.065605573 0.39466107 0
0.06574557 -0.064629905 0.49133724 0
0.20826511 -0.066852599 0.27906632 0
0.14106248 -0.065874465 0.36085209 0
0.13021055 -0.065965004 0.3727138 0
0.15264247 -0.065354928 0.31374851 0
0.15287507 -0.063139357 0.32055154 0
0.15269198 -0.064211264 0.31893319 0
0.11712106 -0.061566077 0.39315769 0
0.15279149 -0.062324036 0.31204313 0
0.15291069 -0.062207326 0.31895724 0
0.12981181 -0.058985747 0.37398559 0
0.12800288 -0.058758304 0.37707755 0
0.15477061 -0.058515646 0.3121793 0
0.15487966 -0.058362816 0.31581643 0
0.15332943 -0.060225572 0.3188608 0
0.053599708 -0.056109585 0.45265433 0
0.15563391 -0.056556836 0.31220612 0
0.12747011 -0.054050475 0.37845179 0
0.12515603 -0.055861443 0.38121036 0
0.12188286 -0.055156369 0.38547 0
0.15355113 -0.054843649 0.33055022 0
0.12741472 -0.052093495 0.37839523 0
0.15644254 -0.053586725 0.31027728 0
0.15689357 -0.052685954 0.30830073 0
0.15626013 -0.053430479 0.31411383 0
0.12206785 -0.051029295 0.38560823 0
0.2122294 -0.050597273 0.27876845 0
0.1538094 -0.048155129 0.3330425 0
0.1184142 -0.046307366 0.39261919 0
0.15715903 -0.046259947 0.32114112 0
0.13210426 -0.045307729 0.37120384 0
0.15874569 -0.045640469 0.31450203 0
0.15911484 -0.043830805 0.31609976 0
0.15647116 -0.043750882 0.32774353 0
0.12824798 -0.043141939 0.37633917 0
0.12143347 -0.04237273 0.38706189 0
0.047607392 -0.040339094 0.4486247 0
0.12804221 -0.038247842 0.37834755 0
0.11745411 -0.037262794 0.3944976 0
0.11641561 -0.038233075 0.39565533 0
0.064405754 -0.033003736 0.47909692 0
0.16277599 -0.036388505 0.30499694 0
0.15444624 -0.034792494 0.34170985 0
0.14770111 -0.033114877 0.35453579 0
0.14451613 -0.033588789 0.35872579 0
0.1336343 -0.034505121 0.36975285 0
0.061166957 -0.029238349 0.48607987 0
0.12052345 -0.028163554 0.38860244 0
0.1146924 -0.028306251 0.39878717 0
0.11592359 -0.027576607 0.39727539 0
0.16594929 -0.028746594 0.3011854 0
0.16551301 -0.028596675 0.30480751 0
0.12062335 -0.026066454 0.3885195 0
0.20996395 -0.027087282 0.27200243 0
0.16447613 -0.02591069 0.3159923 0
0.11985394 -0.023222435 0.38999656 0
0.16666542 -0.024853237 0.29699466 0
0.16665652 -0.024851738 0.29700074 0
0.20941699 -0.021955175 0.27044761 0
0.15159425 -0.020560734 0.35029906 0
0.14875785 -0.019399671 0.35459775 0
0.11654163 -0.017162818 0.39559028 0
0.20891225 -0.020023352 0.27047652 0
0.16224162 -0.018843539 0.32961223 0
0.12716267 -0.016809858 0.37926289 0
0.11555474 -0.016201541 0.39700395 0
0.11403964 -0.016319036 0.40002742 0
0.20902951 -0.016793028 0.26871744 0
0.20838198 -0.018101569 0.27068803 0
0.049692258 -0.011978893 0.45068941 0
0.16193584 -0.013062287 0.33287388 0
0.12233999 -0.012336667 0.38643786 0
0.12763524 -0.0089302007 0.37939164 0
0.17054558 -0.0095102619 0.29504398 0
0.17094509 -0.0074614044 0.29491314 0
0.17097643 -0.0084791211 0.30029696 0
0.1679517 -0.0062054265 0.31964028 0
0.11743642 -0.0045247152 0.3938176 0
0.12056908 -0.002304879 0.38865212 0
0.053842917 0.0015346813 0.48217943 0
0.081119508 -0.012067739 0.1868103 0
0.17201531 -0.0036334526 0.29238802 0
0.15802389 -0.0016388688 0.34323654 0
0.15638429 0.00055562705 0.34604084 0
0.1269466 -0.00030723028 0.38037452 0
0.11799908 9.7398646e-05 0.39269629 0
0.048669152 0.0027173888 0.45346689 0
0.048234671 0.0017037308 0.45524335 0
0.11975706 0.0038847169 0.38974905 0
0.16291004 0.0047611166 0.3357248 0
0.11809999 0.0059084706 0.39266455 0
0.16628252 0.0060679065 0.32977381 0
0.126376 0.0083465381 0.38192204 0
0.10923205 0.0094587198 0.40703672 0
0.048682623 0.0091797113 0.45818764 0
0.047174826 0.010305481 0.4571574 0
0.17466457 0.0052438052 0.28989169 0
0.17153113 0.0071926368 0.31621408 0
0.1243838 0.010637514 0.38452557 0
0.047841214 0.01240349 0.45713821 0
0.1589283 0.010469962 0.34277585 0
0.11945347 0.012411765 0.39128813 0
0.10991435 0.014418082 0.40529239 0
0.044846386 0.013297249 0.45558342 0
0.20735003 0.0098004593 0.24979709 0
0.17581499 0.010077565 0.28074566 0
0.15931474 0.014320368 0.34291247 0
0.12451642 0.014544046 0.38459325 0
0.11449493 0.015237821 0.39849365 0
0.16171733 0.016236823 0.34017721 0
0.11879214 0.017548313 0.39289498 0
0.11661793 0.017746251 0.39552486 0
0.11391434 0.018517086 0.39984143 0
0.17652252 0.015324018 0.27871355 0
0.12864265 0.021000039 0.38046339 0
0.15995245 0.022258416 0.34307465 0
0.12797821 0.024057986 0.38165906 0
0.116251 0.024408441 0.39690554 0
0.16403519 0.026174746 0.33713609 0
0.12835357 0.025983293 0.38167804 0
0.12974375 0.026739059 0.38056028 0
0.11535237 0.027607702 0.39848998 0
0.046121188 0.031897508 0.4682855 0
0.044738464 0.031621002 0.4752382 0
0.19688147 0.026702359 0.25628668 0
0.16866325 0.028749894 0.32864085 0
0.16339219 0.029204402 0.3382867 0
0.16352616 0.03113747 0.33807293 0
0.16235197 0.030341413 0.33938733 0
0.16726032 0.032625839 0.33191442 0
0.15872213 0.032406468 0.34421858 0
0.14996955 0.033618554 0.35621589 0
0.14996153 0.033732429 0.35616174 0
0.10738073 0.035768971 0.4088093 0
0.16556239 0.034965351 0.33455309 0
0.15849064 0.036273092 0.34486842 0
0.12974183 0.036855798 0.38323259 0
0.17489269 0.03439489 0.26762587 0
0.14372838 0.038162999 0.36659253 0
0.04034619 0.04181641 0.4747127 0
0.16677056 0.039688222 0.33322588 0
0.16230112 0.03904422 0.34028268 0
0.16165096 0.040142149 0.34190884 0
0.15082462 0.039418053 0.35623252 0
0.10863283 0.042315509 0.40699515 0
0.040674232 0.045320474 0.46925393 0
0.17612819 0.038466413 0.26485002 0
0.15288779 0.043063127 0.35322332 0
0.15216276 0.042310078 0.3546721 0
0.14968689 0.044147976 0.35981804 0
0.17439225 0.04377858 0.31829315 0
0.16585624 0.045644891 0.33638772 0
0.15319534 0.048511077 0.35474613 0
0.14885172 0.048184723 0.36216223 0
0.14777054 0.047391176 0.36358798 0
0.16657242 0.04947634 0.33633155 0
0.1636856 0.048545327 0.34052512 0
0.14737992 0.050434548 0.36498091 0
0.14543343 0.050816908 0.36768159 0
0.19397177 0.046854049 0.24410112 0
0.16678655 0.053480055 0.33713177 0
0.14937127 0.055191837 0.36329004 0
0.17753412 0.054433458 0.3138929 0
0.17516112 0.056284204 0.32215852 0
0.03574612 0.060593948 0.46466938 0
0.19454059 0.05356513 0.23671529 0
0.17072502 0.057578027 0.3323651 0
0.14823812 0.060513556 0.3667548 0
0.16910657 0.060890228 0.33687109 0
0.15968344 0.061798599 0.35170946 0
0.13598928 0.062682495 0.38346013 0
0.11827271 0.06429515 0.40353155 0
0.11218267 0.064860418 0.4123089 0
0.16973005 0.062979691 0.3370288 0
0.16707844 0.062748626 0.3415685 0
0.1926147 0.06031239 0.23481762 0
0.17603903 0.065160498 0.32475752 0
0.17402035 0.062102273 0.24919075 0
0.14612153 0.070985816 0.37221727 0
0.19089583 0.065594733 0.23291826 0
0.177369 0.06434539 0.24699079 0
0.17128369 0.071825579 0.33701432 0
0.17071685 0.070766591 0.3386516 0
0.16323084 0.071681745 0.35057512 0
0.14018382 0.074007526 0.38045073 0
0.14768636 0.075701155 0.37064663 0
0.12405425 0.075138584 0.40049061 0
0.16369812 0.076747574 0.35200527 0
0.12518929 0.078962989 0.40047494 0
0.12282079 0.077666327 0.40367892 0
0.18912077 0.070749819 0.23132844 0
0.17303582 0.072420083 0.24875905 0
0.16487098 0.079043567 0.3506884 0
0.16280554 0.077906556 0.35336795 0
0.12735374 0.080510944 0.39761198 0
0.16421291 0.082070813 0.35205439 0
0.19067654 0.075314768 0.2216278 0
0.17092636 0.077141032 0.24447742 0
0.17145604 0.083423227 0.34031031 0
0.17068243 0.082549758 0.34177828 0
0.13869619 0.085768379 0.38143659 0
0.12751344 0.085690565 0.39912245 0
0.17832658 0.086758927 0.31969422 0
0.15725178 0.088117532 0.3626776 0
0.12016172 0.090772949 0.41040051 0
0.17289889 0.093176715 0.33740819 0
0.1691989 0.091903992 0.34499606 0
0.12756997 0.094459459 0.40045223 0
0.12347443 0.095628954 0.40755734 0
0.017518215 0.099276185 0.47003397 0
0.16995347 0.094961844 0.34387144 0
0.12533732 0.097564235 0.40474358 0
0.016487584 0.10053262 0.47145921 0
0.16435835 0.09179756 0.23907021 0
0.17215069 0.096039645 0.33923462 0
0.12332855 0.10145471 0.40732682 0
0.015766643 0.086820036 0.12601528 0
0.16585115 0.10484484 0.3493605 0
0.12556893 0.10795742 0.40291962 0
0.16882336 0.10880849 0.33997679 0
0.16515467 0.1100214 0.34736368 0
0.12653512 0.11339696 0.39860427 0
0.12132352 0.11255889 0.40693402 0
0.015078701 0.11557373 0.47315672 0
0.17967635 0.10365751 0.20850176 0
0.16028103 0.1133329 0.35321009 0
0.13034135 0.11366509 0.37854469 0
0.12437747 0.11722521 0.40039876 0
0.012676351 0.12155718 0.47284445 0
0.17298129 0.11445969 0.32059473 0
0.15728521 0.11667705 0.35422194 0
0.1754669 0.11474646 0.29071674 0
0.026891187 0.1085872 0.15795706 0
0.17308328 0.1206366 0.32644027 0
0.175734 0.11472092 0.21800879 0
0.28333485 0.12626611 0.30194017 0
0.27139428 0.12714037 0.32071349 0
0.15467963 0.13358535 0.43156967 0
0.29280978 0.12807789 0.28539848 0
0.2844435 0.12804805 0.30200741 0
0.26404315 0.12983271 0.33157486 0
0.25377971 0.13036515 0.34425119 0
0.16995101 0.1357747 0.41511363 0
0.15668231 0.13606104 0.43021178 0
0.14472455 0.13801274 0.44708517 0
0.14220783 0.13690624 0.44998774 0
0.13005333 0.13911287 0.46683785 0
0.27750552 0.13211881 0.31513253 0
0.27745318 0.13081148 0.31469584 0
0.2573902 0.13341647 0.34160745 0
0.17339456 0.13822478 0.41092619 0
0.15002295 0.14003927 0.44047222 0
0.29253256 0.13148902 0.29022306 0
0.28621426 0.13461992 0.30396047 0
0.27701372 0.13322853 0.31661764 0
0.26300541 0.13495411 0.33501711 0
0.25794023 0.13528137 0.34158093 0
0.15830991 0.14078134 0.42873892 0
0.28848034 0.13497005 0.29939839 0
0.29298025 0.13807535 0.29175678 0
0.29006082 0.1377839 0.29600799 0
0.28857443 0.13769154 0.30072504 0
0.15977776 0.1463322 0.42883527 0
0.15258236 0.14641896 0.43879819 0
0.29455659 0.13985322 0.28856593 0
0.29313183 0.13999867 0.2917369 0
0.27618048 0.14110216 0.31896067 0
0.26624227 0.14155866 0.33275917 0
0.25775439 0.14199601 0.34293374 0
0.2563138 0.14416537 0.34572268 0
0.14795178 0.14904207 0.44551486 0
0.28064755 0.14441051 0.31356293 0
0.2583617 0.14575402 0.34285235 0
0.24152754 0.1464363 0.36368921 0
0.17826031 0.14879653 0.40848801 0
0.2679742 0.14617206 0.33130568 0
0.25906149 0.14757684 0.34278861 0
0.25830099 0.14857641 0.34429577 0
0.16913146 0.15238886 0.42036986 0
0.14731105 0.1551386 0.44844308 0
0.14080873 0.1542301 0.4575372 0
0.13113034 0.15471885 0.46920222 0
0.27434969 0.14959829 0.32448667 0
0.26368663 0.15002206 0.33790362 0
0.24572808 0.15064885 0.35991076 0
0.15695721 0.15579216 0.43589801 0
0.29074121 0.15067557 0.30239224 0
0.18185188 0.15612018 0.40584463 0
0.1555295 0.15803416 0.43882689 0
0.14698949 0.15975226 0.44956246 0
0.12635355 0.16057998 0.47583896 0
0.14362571 0.16419418 0.4550029 0
0.12731466 0.1644382 0.47584608 0
0.29510289 0.1567976 0.29500109 0
0.24317616 0.16101068 0.36470419 0
0.1394518 0.16588666 0.46212369 0
0.13020529 0.16776237 0.47286037 0
0.30001247 0.15777142 0.28542402 0
0.29115853 0.15882966 0.30253303 0
0.15634699 0.16694154 0.43966427 0
0.29122421 0.16074824 0.3025147 0
0.25910798 0.16430251 0.34699273 0
0.1580819 0.16952659 0.43810198 0
0.29809055 0.16213189 0.28943285 0
0.24683326 0.16884744 0.36376438 0
0.15244362 0.17258194 0.44670069 0
0.29280901 0.16660604 0.30083808 0
0.26881766 0.16761452 0.33625758 0
0.3041186 0.16742572 0.2770364 0
0.28155944 0.16902091 0.32073227 0
0.25384292 0.17258361 0.35594621 0
0.30348518 0.16845682 0.27839687 0
0.29568416 0.16928023 0.29658058 0
0.292184 0.17088272 0.30341399 0
0.28808948 0.17078164 0.31088814 0
0.16898137 0.18014659 0.42815202 0
0.13773932 0.1807279 0.46713266 0
0.25002438 0.17635739 0.36157531 0
0.16472645 0.18230052 0.43324873 0
0.27873224 0.17705895 0.32717767 0
0.13618508 0.18783492 0.47141063 0
0.13592508 0.18592864 0.47125432 0
0.29563522 0.17785533 0.29811946 0
0.28594381 0.17812909 0.31745872 0
0.13787781 0.18978438 0.46826977 0
0.29787752 0.17943163 0.29515076 0
0.29898331 0.18005614 0.29389653 0
0.28632796 0.18000558 0.31744215 0
0.28199819 0.18051401 0.32377657 0
0.26412281 0.18324083 0.34588212 0
0.26308221 0.18224648 0.34691215 0
0.19342968 0.18686977 0.39916569 0
0.1925956 0.18785687 0.40069029 0
0.13547361 0.19277164 0.47285956 0
0.13054843 0.19186457 0.47975254 0
0.26431745 0.18518728 0.34592822 0
0.18722132 0.19066307 0.40730348 0
0.17361183 0.18978241 0.42371097 0
0.30631208 0.18260072 0.27783379 0
0.29894036 0.18509437 0.29492208 0
0.28547382 0.18492275 0.31868184 0
0.24526513 0.18866938 0.37060931 0
0.18653798 0.19177425 0.40870997 0
0.16859309 0.19500984 0.43251157 0
0.13015482 0.19773895 0.4812614 0
0.30149168 0.18567243 0.29020831 0
0.29389706 0.18706396 0.30572644 0
0.28224713 0.18884568 0.32447657 0
0.26594815 0.19099961 0.3459236 0
0.15858762 0.19646974 0.44344264 0
0.13290359 0.19838099 0.47692648 0
0.30433443 0.1887542 0.28371638 0
0.15639314 0.19976041 0.44761321 0
0.13997516 0.20174342 0.46963641 0
0.2896418 0.19261234 0.31333238 0
0.28632709 0.19255148 0.31916353 0
0.17739266 0.20018283 0.42279467 0
0.30333811 0.1919603 0.28794816 0
0.28888899 0.19552435 0.31624264 0
0.19298375 0.20204549 0.40407988 0
0.12751587 0.2072247 0.485847 0
0.31253538 0.19353272 0.26818842 0
0.31353086 0.19446938 0.26685375 0
0.3113533 0.19291256 0.26981506 0
0.30466595 0.19427285 0.28630924 0
0.29779962 0.19537702 0.30054694 0
0.28466934 0.19734325 0.32343787 0
0.28314391 0.19761996 0.32625115 0
0.24487652 0.20148149 0.37488538 0
0.16078369 0.20705959 0.44527867 0
0.14304455 0.20871459 0.46665436 0
0.1370924 0.21002319 0.47518393 0
0.30199882 0.19726062 0.2922771 0
0.30168012 0.19855317 0.2939651 0
0.2990436 0.19810969 0.29917601 0
0.17524074 0.20731342 0.42661518 0
0.16365264 0.20808968 0.44075823 0
0.14144562 0.21145666 0.46954289 0
0.1303515 0.21276565 0.48388311 0
0.29773086 0.20036139 0.30188563 0
0.29430079 0.20115709 0.31145728 0
0.2707614 0.20383009 0.34247333 0
0.24903545 0.20462675 0.36918399 0
0.16076501 0.21106735 0.4456 0
0.1576281 0.21317236 0.44885454 0
0.15604517 0.21245801 0.45006338 0
0.15322089 0.21172492 0.45454377 0
0.13033202 0.21573268 0.4856272 0
0.30090028 0.20296273 0.29656434 0
0.28390741 0.20610429 0.32759932 0
0.28388429 0.20611706 0.32759854 0
0.26797271 0.20631297 0.34827492 0
0.16901426 0.21222639 0.43435997 0
0.14267279 0.21523523 0.46945596 0
0.13007805 0.21706581 0.48759356 0
0.30825603 0.20450264 0.28439409 0
0.29302433 0.20707126 0.31672865 0
0.26995069 0.20796755 0.34527615 0
0.24850649 0.21242256 0.37193847 0
0.18224224 0.21737845 0.41983879 0
0.31572887 0.20808287 0.26982576 0
0.31222722 0.20722015 0.27768055 0
0.30040795 0.21073486 0.30679205 0
0.27742726 0.21207897 0.33708531 0
0.17734736 0.22096887 0.42624667 0
0.17127088 0.21996102 0.43467495 0
0.14915189 0.2228891 0.46247858 0
0.31658322 0.20992327 0.269961 0
0.31217977 0.21022844 0.27900964 0
0.3003093 0.2119516 0.30822375 0
0.25721258 0.21760641 0.36099693 0
0.25622267 0.21679261 0.36231413 0
0.1734748 0.22349919 0.43170634 0
0.17367622 0.22153965 0.43187228 0
0.14839888 0.22401676 0.46380115 0
0.13289122 0.22712384 0.48533538 0
0.26562947 0.21924432 0.35199305 0
0.18186799 0.22497831 0.42209655 0
0.16484186 0.2248261 0.44324407 0
0.15693483 0.22723724 0.45381552 0
0.15494066 0.2259142 0.456967 0
0.29589313 0.21714641 0.31516942 0
0.2567839 0.22057092 0.36229643 0
0.19109018 0.22625342 0.41133663 0
0.19018689 0.2254032 0.41272572 0
0.28362125 0.22110692 0.33126324 0
0.25894415 0.22370586 0.36101237 0
0.32224405 0.21856517 0.26855287 0
0.31891009 0.22087249 0.28444961 0
0.31364977 0.22009875 0.29238844 0
0.31284499 0.22117436 0.29375353 0
0.31097037 0.22127706 0.29658502 0
0.28354782 0.22302321 0.33124152 0
0.16227511 0.2324627 0.44842085 0
0.1600154 0.23326664 0.45159176 0
0.15931365 0.23425974 0.45319188 0
0.15795052 0.23395051 0.45551458 0
0.31077996 0.22429693 0.29808661 0
0.29563406 0.22573742 0.31660289 0
0.29447514 0.22497965 0.31778654 0
0.26887321 0.22668865 0.3488766 0
0.25977987 0.22867949 0.35995325 0
0.1717743 0.23576371 0.4374896 0
0.13767363 0.23946264 0.48258719 0
0.32094294 0.22456521 0.28435105 0
0.2996594 0.22710964 0.31121752 0
0.2855823 0.22846977 0.32824701 0
0.16576317 0.23807146 0.44579524 0
0.16407523 0.23848143 0.44886407 0
0.16003081 0.23795229 0.4545466 0
0.14603621 0.23983777 0.47246197 0
0.3302601 0.22513172 0.27171081 0
0.32103539 0.22664778 0.28439847 0
0.31478792 0.22758318 0.2925154 0
0.29968429 0.22930607 0.31139892 0
0.29744768 0.23033004 0.31528717 0
0.15456417 0.24356221 0.46348912 0
0.32978052 0.23133925 0.27403978 0
0.32038689 0.23143227 0.28549784 0
0.30763918 0.2332229 0.30192128 0
0.30664274 0.23417675 0.3031942 0
0.1699132 0.2445202 0.4433504 0
0.16146147 0.24615972 0.45515844 0
0.1414617 0.24989259 0.48180753 0
0.14358968 0.25358957 0.48072901 0
0.33270893 0.23849942 0.27098811 0
0.32463917 0.23761682 0.28156871 0
0.29202938 0.24120298 0.32165235 0
0.27822536 0.24240682 0.33806041 0
0.19768627 0.25008306 0.41276208 0
0.098527059 0.25955373 0.51192558 0
0.33223298 0.23957729 0.2722882 0
0.32486454 0.24138089 0.28116414 0
0.32374808 0.24067728 0.28251147 0
0.26825029 0.24648507 0.34842104 0
0.18878368 0.25382903 0.42478421 0
0.17562513 0.25361085 0.44029996 0
0.3297624 0.2433878 0.27500975 0
0.30903241 0.24558309 0.29992357 0
0.25996029 0.25050935 0.35912767 0
0.18923336 0.25571907 0.42485923 0
0.18717015 0.25600171 0.42747316 0
0.17407133 0.25700837 0.44438976 0
0.16524187 0.25810742 0.45600954 0
0.14174786 0.26131469 0.48544347 0
0.32767648 0.24546151 0.27790946 0
0.31844783 0.24630159 0.28802603 0
0.29887834 0.2480204 0.312668 0
0.29407886 0.24900134 0.31925386 0
0.25964555 0.25301552 0.36058217 0
0.17721303 0.25988784 0.4414084 0
0.14293852 0.26221097 0.48409373 0
0.29204464 0.25092176 0.32161918 0
0.27751863 0.25281468 0.3379887 0
0.24723977 0.25582385 0.3750267 0
0.18029535 0.2602416 0.43723553 0
0.17417628 0.26331854 0.44739509 0
0.31109476 0.25473166 0.29751799 0
0.30116677 0.25387779 0.30981335 0
0.30120438 0.25559077 0.30985582 0
0.26935229 0.25925037 0.34814751 0
0.25851557 0.2599034 0.36219022 0
0.18585238 0.26660767 0.43659452 0
0.33996579 0.25367838 0.26145124 0
0.31697175 0.25602314 0.29079053 0
0.28623673 0.25748718 0.32784081 0
0.28195018 0.26021358 0.33383697 0
0.27483842 0.25992829 0.34179205 0
0.18845055 0.26939702 0.43765688 0
0.1563313 0.27347565 0.48244426 0
0.32309479 0.25672966 0.28229967 0
0.30999589 0.25765193 0.29862499 0
0.28371909 0.26227346 0.33103454 0
0.26941276 0.2631214 0.34824482 0
0.25223073 0.26499981 0.36983803 0
0.19483742 0.2713224 0.43473208 0
0.15220451 0.2750681 0.48924717 0
0.1190013 0.27722564 0.51640642 0
0.29707649 0.26157841 0.31479102 0
0.28355077 0.26418895 0.33101854 0
0.26166102 0.26536497 0.35809013 0
0.20402586 0.27323475 0.4265984 0
0.33698416 0.26059443 0.26536119 0
0.26854217 0.26793793 0.34962898 0
0.26164755 0.26727724 0.35773525 0
0.24866159 0.27061316 0.37391299 0
0.22785206 0.27183375 0.39837787 0
0.16286768 0.27996987 0.47749203 0
0.16037387 0.27866989 0.48024121 0
0.15127593 0.27952552 0.49232271 0
0.34050846 0.26195964 0.26057509 0
0.25084174 0.27220285 0.3712163 0
0.11232799 0.28718221 0.54085958 0
0.25104168 0.27436027 0.37116295 0
0.18479076 0.28029847 0.4500722 0
0.16997771 0.28379801 0.46875489 0
0.12558451 0.28730646 0.52546 0
0.32115853 0.26876414 0.28486505 0
0.27011803 0.27521369 0.34738684 0
0.26906672 0.27413508 0.34877512 0
0.15796171 0.28628966 0.48429009 0
0.15665442 0.28828031 0.48689753 0
0.13593137 0.28900227 0.51344883 0
0.12320073 0.2920036 0.52964258 0
0.10417214 0.29192609 0.55390835 0
0.23975706 0.28044969 0.38473189 0
0.22148767 0.28105691 0.40575564 0
0.15875757 0.2881828 0.4842608 0
0.13949825 0.2910744 0.50953233 0
0.10818221 0.29388779 0.54773659 0
0.3215518 0.27441913 0.28466663 0
0.29514325 0.2768164 0.31617382 0
0.25123298 0.28102636 0.37085307 0
0.21497874 0.28643829 0.41551578 0
0.19439308 0.2875421 0.44046101 0
0.19488391 0.28651136 0.43906915 0
0.17968544 0.29004663 0.45933974 0
0.1654543 0.29128838 0.47702342 0
0.10224844 0.29825595 0.55618215 0
0.33722436 0.27401224 0.26520216 0
0.32248181 0.27523094 0.28340551 0
0.26528281 0.28209844 0.35384035 0
0.21768251 0.28797686 0.41320524 0
0.19967595 0.2899462 0.43400118 0
0.14801122 0.29485896 0.49883679 0
0.12970802 0.29756564 0.52193254 0
0.32485044 0.2779212 0.27929798 0
0.32282498 0.2771664 0.28369406 0
0.23667364 0.28852841 0.3902573 0
0.1733212 0.29564887 0.46694037 0
0.16124454 0.29710415 0.48259416 0
0.14270119 0.29927954 0.50652128 0
0.28464925 0.28372869 0.33109868 0
0.15908803 0.29932049 0.48487243 0
0.13766702 0.30126917 0.51224607 0
0.2968702 0.28591505 0.31673548 0
0.27455723 0.29053238 0.34322977 0
0.2639631 0.29113904 0.35694757 0
0.19540417 0.29931241 0.44036621 0
0.17244762 0.30275422 0.46828738 0
0.23649292 0.29867214 0.39010686 0
0.23124617 0.29943234 0.3966313 0
0.12518868 0.31327212 0.52718401 0
0.30646798 0.29294944 0.30332586 0
0.29377759 0.29466617 0.31962001 0
0.33703777 0.29247177 0.26625174 0
0.20202833 0.30777687 0.43285111 0
0.15738733 0.31464931 0.48714927 0
0.30422467 0.29879937 0.30606484 0
0.20119661 0.31175578 0.43239731 0
0.16897641 0.31388825 0.47312105 0
0.15722808 0.31660295 0.48704559 0
0.15500924 0.31642389 0.49000552 0
0.32428879 0.29851988 0.28204122 0
0.26697311 0.30439329 0.35266915 0
0.20354056 0.31193477 0.42988223 0
0.32715893 0.29951167 0.27795124 0
0.21714592 0.31412148 0.41273034 0
0.33584285 0.30099851 0.26788899 0
0.29928574 0.30658579 0.31182513 0
0.26139641 0.31347954 0.3587518 0
0.24773632 0.31359908 0.37566733 0
0.13005508 0.32971549 0.5201261 0
0.12916785 0.32882926 0.52150232 0
0.33677694 0.30604827 0.26611811 0
0.18338014 0.32402217 0.45441785 0
0.18205902 0.32484332 0.45636022 0
0.1708086 0.3262935 0.46993253 0
0.1529662 0.32982862 0.49193561 0
0.30859041 0.31246009 0.30069405 0
0.26657829 0.31626108 0.35203961 0
0.29499978 0.31677169 0.31687802 0
0.2476982 0.32110214 0.37536138 0
0.20435224 0.32814747 0.4287459 0
0.11629777 0.33684233 0.53682035 0
0.3266412 0.3132987 0.27825812 0
0.27992278 0.32074833 0.33568826 0
0.25742656 0.32246932 0.36344504 0
0.2085762 0.33011028 0.42324036 0
0.28001606 0.32265541 0.33569759 0
0.21724072 0.33028933 0.41202554 0
0.098032787 0.34578338 0.55820429 0
0.31773448 0.32098308 0.2889027 0
0.098030768 0.34775057 0.55820668 0
0.32183164 0.3208515 0.28321242 0
0.27451244 0.32729501 0.34280008 0
0.26439017 0.32900026 0.35386163 0
0.1544486 0.34346184 0.48957813 0
0.31683844 0.32379758 0.2899482 0
0.29839441 0.3279908 0.31218797 0
0.29241008 0.32801622 0.32046622 0
0.19758557 0.33995298 0.43665463 0
0.1924901 0.33984959 0.44244465 0
0.17374244 0.34402344 0.46573931 0
0.34160024 0.32491413 0.25820622 0
0.32755375 0.32580826 0.27613941 0
0.31102207 0.32718456 0.29635 0
0.30470723 0.32906058 0.30457285 0
0.29233834 0.32994184 0.32037729 0
0.26966834 0.33386004 0.34735182 0
0.33284983 0.32634401 0.27020806 0
0.29292464 0.33258334 0.31898725 0
0.22385879 0.34222525 0.40323511 0
0.1467329 0.3504408 0.49882451 0
0.10139067 0.35669619 0.55370933 0
0.32493442 0.33141083 0.27898002 0
0.26508394 0.33809903 0.35234556 0
0.23858672 0.34181118 0.3847301 0
0.1969265 0.34596947 0.43673247 0
0.16092552 0.35089174 0.48122194 0
0.29988286 0.33669344 0.3096306 0
0.28635329 0.33793586 0.32706556 0
0.24514028 0.34277719 0.37776095 0
0.22433612 0.34644625 0.40261492 0
0.15971129 0.35407826 0.48244122 0
0.13823071 0.35724485 0.50818515 0
0.2761184 0.34153867 0.33917943 0
0.23879245 0.34579465 0.38456553 0
0.14403671 0.35829708 0.50140065 0
0.28620189 0.34193292 0.32679227 0
0.18455997 0.35513794 0.45164946 0
0.24302593 0.35079026 0.37919149 0
0.21888575 0.35348269 0.40881085 0
0.21821003 0.35461178 0.41020599 0
0.21304616 0.35325739 0.41514474 0
0.18794398 0.35818383 0.44739458 0
0.16032045 0.36113164 0.48061016 0
0.15680027 0.36168975 0.48512894 0
0.098918334 0.36855301 0.55610931 0
0.33713996 0.34062657 0.26450574 0
0.28109032 0.34827134 0.33280164 0
0.15577677 0.36452979 0.48632956 0
0.11458156 0.36963761 0.5368706 0
0.31593686 0.34647003 0.28970814 0
0.29026437 0.34803405 0.32141215 0
0.28917342 0.349107 0.3224934 0
0.27225772 0.35070705 0.34309256 0
0.12326913 0.37191722 0.52585834 0
0.32456502 0.34777865 0.27875063 0
0.31447667 0.34745529 0.29085204 0
0.17251763 0.36618674 0.46584576 0
0.16033921 0.36906493 0.48072559 0
0.15809031 0.36899796 0.48335272 0
0.32431415 0.34971559 0.27865982 0
0.23199573 0.36213115 0.39171678 0
0.21298887 0.36428091 0.41495147 0
0.18262279 0.36782455 0.45256627 0
0.18287945 0.36773759 0.45244759 0
0.11197342 0.37753069 0.53935671 0
0.233092 0.36512855 0.39043567 0
0.23099563 0.36706689 0.39313298 0
0.22308116 0.3661077 0.40204528 0
0.20915617 0.36899468 0.41911015 0
0.18571351 0.3723526 0.44901755 0
0.1729288 0.37409249 0.46503416 0
0.12834142 0.38001165 0.52120316 0
0.19464779 0.37663713 0.43841383 0
0.29478902 0.3644664 0.31436664 0
0.24904737 0.37188607 0.37098923 0
0.23574615 0.37350288 0.38752267 0
0.21009931 0.37666956 0.41916361 0
0.20019935 0.38013521 0.45635158 0
0.14596915 0.38787708 0.52617979 0
0.11639947 0.39050606 0.56297797 0
0.26962218 0.37084672 0.34443712 0
0.15883668 0.38762251 0.51010627 0
0.14140829 0.38949627 0.53184599 0
0.058350302 0.35428864 0.014354281 0
0.26717746 0.37300333 0.34947196 0
0.19994488 0.3850061 0.45918629 0
0.17785244 0.38705403 0.48511371 0
0.16342004 0.38956916 0.50428236 0
0.19612762 0.38702923 0.46200797 0
0.11966684 0.39730883 0.55739146 0
0.33589038 0.36628515 0.24774939 0
0.2502135 0.38282612 0.39667553 0
0.16355571 0.39351261 0.50398749 0
0.13368122 0.39944905 0.53994268 0
0.12987384 0.39990306 0.54478586 0
0.12463839 0.39927197 0.55119634 0
0.29420009 0.37857169 0.34253749 0
0.13090396 0.40079695 0.54335189 0
0.350198 0.37252793 0.2541604 0
0.31437248 0.37834904 0.31729701 0
0.23444879 0.38961294 0.4157804 0
0.24346849 0.39043432 0.40466607 0
0.13641608 0.40539053 0.53654397 0
0.10485207 0.4104656 0.57508272 0
0.34928477 0.37666249 0.27402699 0
0.30450273 0.38498873 0.32952192 0
0.27098054 0.38799545 0.37052274 0
0.24453346 0.39343286 0.40287438 0
0.23708937 0.39480051 0.41172644 0
0.18446462 0.40237755 0.47644213 0
0.16575606 0.40591693 0.50003523 0
0.36531037 0.38088244 0.25385004 0
0.31513351 0.38773486 0.31582361 0
0.3031756 0.38798428 0.33065635 0
0.25271761 0.39573121 0.39207408 0
0.1559819 0.4109146 0.51127517 0
0.1343876 0.41404635 0.53860795 0
0.33554685 0.38552228 0.29086971 0
0.32762006 0.38827899 0.30030847 0
0.31503072 0.38968953 0.315855 0
0.29263911 0.39374009 0.34346116 0
0.14932887 0.41440773 0.51940036 0
0.34809983 0.38593602 0.27498469 0
0.246172 0.40144092 0.39987284 0
0.22345859 0.40423059 0.42775884 0
0.22124088 0.40592834 0.43059605 0
0.15008107 0.41545179 0.5179379 0
0.1460503 0.41749412 0.52353591 0
0.13033214 0.41873062 0.54271096 0
0.11074308 0.42219484 0.56674486 0
0.28928396 0.39857414 0.34715274 0
0.26790676 0.39983156 0.37308493 0
0.26702791 0.40075037 0.37453708 0
0.32806051 0.39504221 0.29906681 0
0.30761144 0.39677522 0.32418469 0
0.27278286 0.40330023 0.36737996 0
0.36150399 0.39236802 0.25753367 0
0.33813331 0.39596894 0.287009 0
0.31748 0.39865825 0.31176299 0
0.28426176 0.40412581 0.35247111 0
0.26406768 0.40666747 0.37797755 0
0.26173005 0.40695015 0.38046241 0
0.22303861 0.4128966 0.4277561 0
0.20715505 0.41520771 0.44721445 0
0.18349937 0.41778421 0.47625211 0
0.31627971 0.40147892 0.31307602 0
0.30977872 0.40244985 0.32145527 0
0.30357581 0.40276343 0.32946026 0
0.25438434 0.40987331 0.38954166 0
0.21153563 0.41562426 0.44203019 0
0.14624934 0.42535049 0.52351582 0
0.14705501 0.42626366 0.52201593 0
0.33236727 0.40070972 0.29342997 0
0.31880969 0.4037506 0.30971035 0
0.28930065 0.40631604 0.3476114 0
0.27441531 0.40957785 0.36462864 0
0.20575723 0.42052725 0.44829151 0
0.34305149 0.40221852 0.28003138 0
0.32333651 0.40440211 0.3039397 0
0.28414509 0.41015711 0.35235283 0
0.13963518 0.43206191 0.53012961 0
0.13842483 0.43120643 0.5315702 0
0.13854524 0.43301392 0.53159231 0
0.35855532 0.40206975 0.26043612 0
0.24768592 0.41734016 0.39700183 0
0.20037761 0.42461905 0.45485172 0
0.20168436 0.42534712 0.45320559 0
0.19369565 0.42629805 0.46264729 0
0.19372058 0.42612812 0.46272573 0
0.15766974 0.43052769 0.50757098 0
0.27959573 0.41550332 0.35788387 0
0.18156061 0.43065953 0.47750098 0
0.16583623 0.43276006 0.4965927 0
0.30098873 0.41430661 0.3309826 0
0.20861781 0.42804128 0.44454509 0
0.28715494 0.41989189 0.34723192 0
0.27215132 0.42213315 0.36587688 0
0.34508729 0.41298863 0.27629811 0
0.26888132 0.42491397 0.36994854 0
0.24477309 0.42756024 0.39916077 0
0.23393776 0.42889437 0.41256583 0
0.21040818 0.43199217 0.44142446 0
0.27418646 0.42597386 0.36329007 0
0.25673312 0.42943558 0.38437667 0
0.24529476 0.430098 0.39757502 0
0.34619272 0.41608673 0.27480066 0
0.32592481 0.41951707 0.29987451 0
0.28242397 0.42771155 0.35229194 0
0.23258421 0.43381765 0.4136835 0
0.18717484 0.44047573 0.46950927 0
0.15248017 0.44587433 0.51275253 0
0.29782876 0.4262189 0.33363152 0
0.2119889 0.43946895 0.43844682 0
0.20557551 0.44155011 0.44657719 0
0.10614707 0.45564944 0.5700621 0
0.33930713 0.42175403 0.28247502 0
0.250698 0.4372234 0.39118108 0
0.23903228 0.43829221 0.40543336 0
0.22002515 0.44014573 0.42884034 0
0.1233373 0.45656955 0.54775685 0
0.34591752 0.42371026 0.27482572 0
0.33704877 0.42595342 0.28583455 0
0.34565973 0.42564878 0.27479711 0
0.32171327 0.43031698 0.30393305 0
0.29617918 0.43336529 0.3348971 0
0.25954291 0.44031668 0.380088 0
0.24933159 0.4421899 0.39232755 0
0.23587461 0.44215366 0.40928206 0
0.22337946 0.44449392 0.42462763 0
0.15252694 0.45710564 0.51068962 0
0.15385491 0.45605147 0.50939292 0
0.14987928 0.4558661 0.51517636 0
0.35020065 0.42759737 0.26927796 0
0.33576909 0.43115246 0.28631172 0
0.30466914 0.43599051 0.32363757 0
0.26915079 0.43982464 0.36817527 0
0.11147436 0.46626893 0.56213778 0
0.35811648 0.42987877 0.25889179 0
0.30021819 0.43714747 0.32918286 0
0.15847987 0.46002218 0.50398099 0
0.15362512 0.46008846 0.50917661 0
0.29009357 0.44171298 0.34145227 0
0.26864806 0.44538611 0.36766511 0
0.20683822 0.45597976 0.44369388 0
0.14973164 0.46397805 0.51475573 0
0.31267157 0.44020629 0.31411275 0
0.30073577 0.442586 0.32801738 0
0.17412402 0.46338904 0.4840284 0
0.15058354 0.46511832 0.51304734 0
0.35510036 0.43630546 0.26105335 0
0.33035892 0.4403547 0.29280317 0
0.29613277 0.4456839 0.3334071 0
0.29178143 0.44654971 0.33867878 0
0.27804002 0.44767258 0.35595879 0
0.16530587 0.46665522 0.49480003 0
0.16519871 0.46649966 0.49493578 0
0.34536043 0.43965426 0.27440739 0
0.25424168 0.45499986 0.38551491 0
0.27449039 0.45276353 0.36035523 0
0.22790807 0.46204537 0.41730368 0
0.19016244 0.46700329 0.46349183 0
0.18307027 0.47060406 0.47205296 0
0.36357075 0.44344687 0.25162789 0
0.27483916 0.45934111 0.35904023 0
0.26526606 0.45943236 0.37112778 0
0.18301724 0.47258979 0.47186399 0
0.35107931 0.4477033 0.26614112 0
0.2554867 0.46378216 0.38248098 0
0.23643012 0.46734393 0.40565109 0
0.18276003 0.47641402 0.47179458 0
0.14980716 0.4816829 0.51313728 0
0.36030194 0.4498204 0.25565001 0
0.23547953 0.46820205 0.40746927 0
0.12727517 0.48791087 0.5404129 0
0.12537004 0.48781291 0.54311919 0
0.30187631 0.46151638 0.32517383 0
0.23417526 0.47107342 0.40903071 0
0.22856462 0.47391048 0.41564086 0
0.22863173 0.4719702 0.41557997 0
0.17835617 0.4843612 0.47735739 0
0.35599962 0.45550692 0.25997558 0
0.28260189 0.46886396 0.34866124 0
0.23712823 0.47622895 0.40508851 0
0.20205106 0.48062018 0.44760165 0
0.20100562 0.48107985 0.44918093 0
0.36306536 0.45841014 0.25082827 0
0.35816166 0.45944494 0.25693533 0
0.31129473 0.46662441 0.31299886 0
0.24909234 0.47729418 0.38991913 0
0.31334317 0.46852931 0.31025714 0
0.25317177 0.47779906 0.38455331 0
0.20857978 0.48485327 0.43943271 0
0.14487073 0.49625069 0.51767063 0
0.32593971 0.46879745 0.29482502 0
0.28858057 0.47443816 0.34049147 0
0.1843055 0.4916752 0.468808 0
0.14488454 0.49788657 0.51763439 0
0.30649409 0.47442773 0.31817934 0
0.10014682 0.50962549 0.573578 0
0.099948093 0.50767201 0.5736202 0
0.34494489 0.46991226 0.27226362 0
0.32494885 0.47392276 0.29508665 0
0.28727996 0.47925186 0.34188044 0
0.35079122 0.47146559 0.26480767 0
0.29226288 0.48040587 0.33520386 0
0.27961183 0.48267016 0.3512342 0
0.35812777 0.47235423 0.25549161 0
0.32381633 0.47861418 0.296583 0
0.31381318 0.47891107 0.30872104 0
0.30005392 0.48245633 0.3257587 0
0.29883566 0.48158294 0.32675663 0
0.21870992 0.49621001 0.42594281 0
0.2175781 0.49913934 0.4271684 0
0.35803556 0.47667935 0.2554417 0
0.13104068 0.51637536 0.53335088 0
0.35797358 0.47860584 0.25534061 0
0.1330993 0.51625621 0.53078419 0
0.29101926 0.49382716 0.33605993 0
0.19845623 0.50816935 0.45045847 0
0.30355468 0.49245426 0.32015285 0
0.30359936 0.4922722 0.32010406 0
0.22562921 0.50652009 0.41609657 0
0.31975684 0.4928734 0.30023959 0
0.31831691 0.49205473 0.3019461 0
0.30979586 0.49494275 0.31237143 0
0.18162668 0.5171355 0.4698188 0
0.17638436 0.51605433 0.47678742 0
0.31940448 0.49507755 0.3008039 0
0.26832893 0.50514978 0.36431277 0
0.31141201 0.50184959 0.31029463 0
0.19971305 0.52004057 0.44710732 0
0.18172523 0.52318817 0.46994141 0
0.34903249 0.49685359 0.26484734 0
0.25353897 0.51341337 0.38136914 0
0.23525421 0.51738238 0.40373251 0
0.23302293 0.51766557 0.40579936 0
0.19868299 0.52310538 0.4483856 0
0.35949272 0.49655986 0.25205275 0
0.32470867 0.50260723 0.2937842 0
0.28937349 0.50960809 0.33718345 0
0.16649045 0.53127509 0.48785809 0
0.27610183 0.51345289 0.35340679 0
0.23871835 0.51930457 0.3980622 0
0.23301375 0.52125508 0.405725 0
0.2224327 0.52413458 0.4187434 0
0.15098956 0.53613305 0.50732744 0
0.30116844 0.51064295 0.32177249 0
0.20154449 0.52832198 0.44379219 0
0.17892636 0.53323853 0.47239622 0
0.099953547 0.5477863 0.56976485 0
0.16713506 0.53825742 0.48645425 0
0.12225374 0.54551256 0.54267699 0
0.11989765 0.54571855 0.54537308 0
0.33564225 0.51130641 0.27940074 0
0.28940675 0.51798958 0.33584335 0
0.24355663 0.52565587 0.39250624 0
0.24460796 0.52665901 0.39135483 0
0.16070138 0.54166824 0.49455637 0
0.11747093 0.55032206 0.54732394 0
0.26426288 0.52502441 0.36694449 0
0.17922139 0.54394555 0.47085676 0
0.36071074 0.51354229 0.24889611 0
0.34789565 0.51563025 0.26456636 0
0.30126256 0.52293158 0.32117146 0
0.20046702 0.54204464 0.44480205 0
0.3327471 0.52017683 0.28307652 0
0.28491795 0.52797741 0.34141526 0
0.26873067 0.53043127 0.36101556 0
0.20892274 0.54228222 0.43363041 0
0.15985298 0.5515281 0.4947874 0
0.11290539 0.56053197 0.55279678 0
0.29842412 0.5285939 0.32453245 0
0.15464111 0.55450648 0.50155872 0
0.14541894 0.55517936 0.51238829 0
0.34239069 0.52304441 0.27069712 0
0.22284296 0.54377848 0.41673446 0
0.34360328 0.52567822 0.26936483 0
0.28237504 0.53620797 0.34380141 0
0.1328721 0.56286591 0.52849013 0
0.096945971 0.57036972 0.57193363 0
0.21393301 0.55008447 0.42718819 0
0.13935348 0.5652616 0.52061629 0
0.11028738 0.56928867 0.55598462 0
0.36268952 0.52474213 0.24443997 0
0.35678911 0.5280177 0.25226384 0
0.1694414 0.56054676 0.48231825 0
0.15264563 0.56374574 0.50297463 0
0.15380876 0.56474429 0.50186527 0
0.35496393 0.53030455 0.25486544 0
0.33350086 0.53443027 0.28022844 0
0.3403953 0.53476089 0.2721158 0
0.33367753 0.53632122 0.28052345 0
0.30437046 0.54066318 0.31615582 0
0.206669 0.55950707 0.43590137 0
0.1315441 0.57292432 0.52955478 0
0.24152511 0.55545074 0.3930015 0
0.21928284 0.56204671 0.41928867 0
0.18515249 0.56825292 0.46238676 0
0.13092893 0.57907701 0.52914518 0
0.3049351 0.54765248 0.31536254 0
0.23215833 0.56227279 0.40410399 0
0.16039877 0.5742873 0.49349681 0
0.28111237 0.55437207 0.34432867 0
0.13859183 0.58178931 0.51913893 0
0.35335365 0.54410148 0.25543499 0
0.31084192 0.5507068 0.30756694 0
0.23030514 0.56798732 0.40601322 0
0.20444193 0.57261777 0.43752393 0
0.1378099 0.58484024 0.52068895 0
0.2381216 0.56680375 0.39693925 0
0.21788308 0.5707559 0.42113769 0
0.14883944 0.58450925 0.50712132 0
0.31098741 0.55513364 0.30738753 0
0.27400598 0.56288445 0.35235685 0
0.20630416 0.57596731 0.43486863 0
0.11746779 0.59206504 0.54545838 0
0.10032526 0.59581655 0.56654304 0
0.33733603 0.55439311 0.274878 0
0.32513899 0.55496478 0.28948048 0
0.36352098 0.55025589 0.24413912 0
0.19734289 0.5832665 0.44518539 0
0.19308229 0.58236706 0.45111796 0
0.30335891 0.56511462 0.31607321 0
0.29643059 0.56672168 0.32381603 0
0.27446067 0.5691064 0.35135889 0
0.24119055 0.57645273 0.39161816 0
0.24589173 0.57889354 0.38541961 0
0.34761655 0.5609709 0.26149598 0
0.27623191 0.57476133 0.34862193 0
0.27729151 0.57364029 0.3472757 0
0.17638069 0.59396964 0.4712081 0
0.28257173 0.57593399 0.34050807 0
0.16802078 0.59743285 0.4817012 0
0.3476201 0.56482559 0.26115242 0
0.27014366 0.57914513 0.35474965 0
0.20969009 0.59123474 0.42991716 0
0.18395257 0.59826922 0.46148118 0
0.13257119 0.60632044 0.525994 0
0.33556306 0.56876886 0.27492404 0
0.29740569 0.57723552 0.3222343 0
0.22508475 0.59110129 0.41081482 0
0.20743306 0.59510565 0.43258813 0
0.095745608 0.61696935 0.57026529 0
0.33183545 0.57366663 0.27972493 0
0.24858209 0.59015441 0.38112891 0
0.24278186 0.59127277 0.38911971 0
0.23915899 0.59067833 0.39276686 0
0.26589778 0.58733147 0.3599318 0
0.15541175 0.61078596 0.49665552 0
0.31045622 0.58058876 0.30577582 0
0.1691393 0.60920984 0.47982085 0
0.17095044 0.60879219 0.47686693 0
0.14770937 0.61347473 0.50618893 0
0.34550434 0.5775494 0.26287824 0
0.20704161 0.60351408 0.43259776 0
0.17648913 0.61116803 0.46988863 0
0.25228 0.59818202 0.37588531 0
0.34964976 0.58195895 0.25776532 0
0.34943628 0.58074564 0.25912485 0
0.31397671 0.58805585 0.30128375 0
0.1868244 0.61386406 0.45679641 0
0.12223613 0.62591696 0.53672153 0
0.098175839 0.63381547 0.56605798 0
0.29603794 0.59680969 0.322842 0
0.29036009 0.59619248 0.32924327 0
0.24036793 0.60708338 0.39069399 0
0.21742275 0.61178058 0.41853416 0
0.15294248 0.62466943 0.49946731 0
0.098154381 0.63581347 0.56605035 0
0.30196249 0.59769863 0.31463578 0
0.2790978 0.60248381 0.3428756 0
0.34507143 0.59140509 0.26244059 0
0.34573689 0.59032059 0.26176628 0
0.34702727 0.5894708 0.26042989 0
0.34350112 0.59030575 0.26382449 0
0.16582562 0.62680531 0.48228806 0
0.13624215 0.6320141 0.51859897 0
0.10782501 0.63902229 0.55376273 0
0.2351279 0.61467928 0.39619476 0
0.12518418 0.63714463 0.53255659 0
0.10098468 0.6424557 0.5618 0
