# .PCD v0.7 - Point Cloud Data file format
VERSION 0.7
FIELDS x y z intensity
SIZE 4 4 4 4
TYPE F F F F
COUNT 1 1 1 1
WIDTH 1400
HEIGHT 1
VIEWPOINT 0 0 0 1 0 0 0
POINTS 1400
DATA ascii
-6.2319078 -3.650404 -0.57867557 0
9.742754 -0.0928801 -1.057148 0
4.052217 -5.0598245 -1.1102129 0
9.7902746 3.3012815 -1.4899786 0
-10.220248 0.44460735 0.046078578 0
9.7957716 2.3230889 -1.0550714 0
-8.5652914 1.5099658 -0.50201309 0
9.7446852 -0.43928304 -0.90338773 0
4.5642858 4.9381876 -0.73254067 0
-7.9476538 -4.7894015 0.16341974 0
-1.3609163 1.2114094 -0.94591522 0
8.4259348 -0.77968442 0.47611117 0
3.6275067 4.9655657 -0.20261872 0
9.8793764 2.4505448 0.25104409 0
3.5076284 -5.0232191 0.61900574 0
3.0631368 -5.0143766 0.58549982 0
-6.1003318 5.1675773 -0.35226634 0
-3.8362219 2.7378507 1.1917675 0
-10.113977 4.421783 0.35648364 0
-10.285941 -1.5238807 -0.31917742 0
-2.8781664 5.0985618 -0.44713831 0
-10.165868 0.20280552 1.0105109 0
-5.3387079 5.0516763 1.2545035 0
-10.210412 -1.4357083 0.87030226 0
-3.5212722 -3.4808922 -0.74942845 0
9.8671618 2.5429871 0.020922614 0
9.8636236 4.2252469 -0.63144231 0
9.7286901 -2.963033 -0.26900682 0
7.4330387 0.37972754 -1.4815677 0
9.7801142 1.8020859 -1.1237863 0
-0.27166805 -4.9599028 -0.48087156 0
-0.28763014 -4.5331345 -0.93650168 0
-10.10605 3.8779311 0.6770305 0
-1.2458456 5.0831594 0.84839904 0
1.8628273 5.0047593 -0.054746378 0
-5.095005 5.1431842 -0.57832336 0
-4.9720535 0.2468704 1.29539 0
-4.9492078 -1.2199848 -0.69062555 0
-10.128274 2.3863814 0.84554315 0
-0.9640187 -4.9465513 -0.56202322 0
-10.127321 4.5792065 0.085129529 0
-3.9990702 5.0923095 -0.83334947 0
-4.0092239 0.47137031 -0.77147555 0
9.7208757 -2.5369167 -0.54605418 0
-9.0441418 -2.8001678 1.5889142 0
-10.213907 -0.84821844 0.60595292 0
-5.3788385 -4.8511992 -0.37766129 0
-9.132123 -4.745997 1.4370768 0
3.6863101 -0.24312241 -1.240398 0
-10.170165 1.7368203 0.39833376 0
-2.511193 5.1017513 0.30105129 0
3.4267182 3.1714795 0.73452079 0
-1.5828844 -4.1207404 -0.86144799 0
-0.72864658 5.051949 -0.54973292 0
7.0162644 4.9030495 0.38915709 0
7.0705986 4.8928285 -0.23458534 0
-10.144711 3.4005775 0.22107367 0
8.5601616 1.7823876 -1.570225 0
-2.3050785 5.0958261 0.19124137 0
-8.2854452 2.2047064 1.4754188 0
3.319531 4.9681463 -0.46939683 0
9.6456804 -3.3124976 -1.4869378 0
7.982214 -0.6564877 -1.5019739 0
-10.252209 -1.3831342 0.17618759 0
-10.237005 -4.5176864 1.5308985 0
1.0384704 5.0316873 0.60635471 0
9.7115374 -0.82827497 -1.3014833 0
1.1786629 -0.93949455 -1.0752813 0
-9.6382074 1.8813614 -0.44023761 0
9.8001909 3.9060943 -1.5437032 0
-10.043344 5.1205082 1.2508194 0
2.841121 3.0186913 -1.2310867 0
9.7652235 -0.52320474 -0.54176611 0
-8.1247787 5.2309527 1.0821002 0
-0.012008339 1.4749508 -1.0332627 0
7.5810781 -5.1176114 0.0083746957 0
2.224745 -5.0131307 -0.53772491 0
-3.642312 3.4659922 1.1700628 0
-0.036842357 -0.85434139 -1.0008481 0
-10.111718 1.2853818 1.5026447 0
-7.0381451 1.1308715 1.4121124 0
6.1565728 -2.5281563 -1.3636773 0
-5.2763844 -4.8383932 0.64968807 0
9.7708893 1.3434452 -1.1106027 0
-0.45470431 -4.9477382 0.090792872 0
-8.3606291 -4.5717621 -0.4341329 0
-10.217923 -3.3194628 1.4153787 0
-10.063567 3.5253837 1.4883469 0
1.2040123 5.0211554 0.12158097 0
-1.0054476 5.0661244 0.024869982 0
-2.6647153 5.1093946 0.60470837 0
9.8042326 2.638638 -1.0299532 0
-3.2191057 5.1190219 0.46670291 0
-10.265667 -1.973508 0.16756114 0
-10.006465 1.9766064 1.5854288 0
3.9182072 4.9535594 -0.60818022 0
-10.135537 3.7922635 0.23076203 0
9.766283 -1.5449184 -0.1631628 0
3.7763543 4.9478393 -1.205624 0
9.7568169 0.013317281 -0.86745423 0
-3.6625938 2.0947878 1.1894966 0
1.3118844 5.0014005 -1.0798311 0
-10.043485 4.4496403 1.4859066 0
-2.0943732 5.0879698 -0.044604223 0
9.6903372 -2.9230199 -0.90299755 0
-10.219435 -1.9172682 0.8948496 0
-10.212893 -0.33718607 0.44154784 0
0.57080877 2.6322248 0.91920489 0
9.5513344 -1.6055386 0.41709614 0
5.399405 -5.0649509 0.48005062 0
-10.146194 3.4234002 0.18903382 0
0.75565857 -3.5372729 -1.0145561 0
-6.2020993 -4.8277841 0.043705802 0
3.7555661 -5.0504055 -0.89094746 0
9.6636086 -4.2699146 -0.85845685 0
-10.144588 3.7106667 0.11334412 0
-10.234006 -2.0947511 0.72214895 0
4.7124152 1.8572757 0.67201316 0
-9.5862665 -4.7519894 0.37069091 0
-10.342945 -4.5688181 -0.16317338 0
9.1814013 4.8331227 -1.2923921 0
9.6591158 -4.3907247 -0.88832164 0
9.8310375 3.458802 -0.88692039 0
-10.223551 -1.2763695 0.60157818 0
-8.7098961 5.23807 0.72736371 0
5.5305967 -5.0890317 -0.98489279 0
-10.210825 0.91513985 0.031907555 0
9.7982616 2.5151954 -1.0827885 0
1.8207293 -4.9962387 0.040067952 0
8.5815105 -3.872498 0.50742978 0
9.7973633 1.9098022 -0.8831172 0
9.0712576 2.2646224 0.39564759 0
9.6512718 -3.1434574 -1.4563752 0
-10.160942 3.0951159 0.066824384 0
-2.9121416 -0.82393783 1.1815276 0
-10.298868 -4.1626625 0.40548354 0
-0.81605047 5.0581131 -0.25233865 0
-10.237586 -3.2265344 1.0647109 0
-5.3191581 -4.8461499 0.055214699 0
-8.1085606 -1.3202826 -0.49289554 0
-1.8242753 -4.9198408 0.03239562 0
-8.561965 1.9625897 1.4958174 0
9.8753433 4.7453642 -0.62604421 0
9.8842773 4.4863791 -0.39003086 0
2.1475074 0.23371792 -1.1510582 0
-10.152506 0.58125168 1.0925671 0
3.2272365 -3.9901621 -1.1621991 0
-8.4028654 -4.7667055 1.0660808 0
8.4526711 -5.142199 -0.42384148 0
-10.126788 4.9737372 -0.045835368 0
-2.3794091 5.0934711 -0.077714518 0
-7.2807684 -4.8016324 0.28482261 0
9.1339684 4.8545122 0.10848905 0
-9.3182611 5.2490683 0.60565722 0
-5.4862518 -1.3744386 1.3488427 0
-0.78101557 0.79006177 -0.97638041 0
-2.8301537 -4.8850732 0.97028339 0
-2.3913593 -0.36648867 1.1430906 0
1.2245172 0.34375763 0.90889698 0
2.333246 2.4121675 -1.1914763 0
-0.45323479 -4.9553666 -0.43108353 0
-2.1911943 -3.0932713 1.1667862 0
-1.2623887 -4.6823535 -0.87392831 0
8.4019833 4.8555536 -0.87537563 0
-2.9771502 -4.8928304 0.22548518 0
-10.287814 -4.665597 0.76207727 0
1.8663256 -2.9776268 0.91301835 0
9.8234119 2.7369909 -0.75478411 0
-8.8046246 4.7866025 1.4734749 0
-10.346792 -4.3271708 -0.31084657 0
1.1225642 5.0282521 0.49164835 0
-3.18555 -4.9013987 -0.66353768 0
7.5152211 -4.0800385 -1.4275699 0
-6.6412964 3.2584183 1.3592453 0
-5.9739661 5.1716371 0.1087908 0
7.3107791 -2.607434 0.5696584 0
5.0695205 -3.4346764 -1.2840865 0
5.6164355 2.6313505 -1.3984803 0
-8.8450842 5.2387896 0.58186036 0
9.9153948 3.9685388 0.2960889 0
9.7692022 2.2341743 -1.4530138 0
1.3059993 -1.8337712 -1.071345 0
9.8334789 1.4774513 -0.14646305 0
-4.7616906 -4.8506498 0.54987288 0
9.8543587 4.6663437 -0.93722677 0
-10.152177 2.7755196 0.32156324 0
-10.223792 0.76116699 -0.12319291 0
9.8018837 -0.66822517 0.10203697 0
-3.0101895 0.56085002 -0.83476633 0
3.9625382 4.9494743 -0.8248632 0
9.6602678 -3.4864671 -1.1896379 0
-10.324463 -3.3988764 -0.2783953 0
1.5469151 5.0098243 -0.16232187 0
-9.5845947 0.44150603 1.5795485 0
-10.220638 -3.7384996 1.519738 0
9.7495365 1.1479206 -1.3865356 0
9.7005577 -1.7066659 -1.1681606 0
9.3805857 -5.1705036 -1.0302206 0
0.66915828 -0.59263414 -1.048205 0
-10.126287 3.7390618 0.39907166 0
0.96147192 -4.9823928 -0.2477617 0
9.8087187 1.4061744 -0.52141017 0
-10.310304 -2.779388 -0.26873726 0
6.1741762 2.4983413 -1.4313893 0
9.6944094 -4.3652945 -0.32691601 0
5.2534261 -4.3704348 -1.2831171 0
-3.0876584 5.1042724 -0.35693976 0
-10.253082 -4.5796666 1.2929959 0
-4.3428583 5.1506462 1.0187148 0
9.8334112 1.500077 -0.1555624 0
-0.58676505 -3.8865116 1.0775602 0
-4.9596977 3.0625455 1.2573049 0
-10.200594 -0.0035668924 0.52228075 0
9.851449 1.9139109 -0.010453335 0
-5.0114937 -4.8465457 0.47160447 0
-1.5323842 -0.83020395 1.0958382 0
-6.6184845 -4.8109579 0.59915137 0
-10.218929 -1.7935114 0.85923517 0
8.1220999 -5.1214886 0.52210563 0
-10.176933 3.5700345 -0.35963824 0
1.9690411 -3.5117056 -1.0903246 0
-7.1567745 -2.1095607 1.4624333 0
-3.7365396 2.5078361 -0.81541681 0
-10.236181 -1.9952741 0.6517942 0
-5.0018563 5.1536703 0.27626908 0
9.8295126 2.8812017 -0.70721483 0
-2.5900865 5.1018238 0.19228025 0
-9.3116131 -1.5607696 1.5891154 0
-5.8357162 5.1814437 0.98174399 0
-3.9426847 -4.8842297 -0.57585013 0
9.718894 -2.1725552 -0.70699602 0
9.8199911 3.2823651 -1.0030253 0
9.7825098 0.942761 -0.78103495 0
-5.9046125 0.22981802 1.3535885 0
-2.1093574 -1.8015827 -0.85945636 0
-10.199618 -0.43835577 0.69188851 0
-10.203566 0.14063428 0.42324018 0
2.6192524 2.2157209 -1.2066523 0
5.7671118 0.17712533 0.62871563 0
-8.9274807 4.1499758 -0.51448649 0
-10.21141 -0.15509653 0.40109763 0
-10.116573 3.0822172 0.78846872 0
6.8179498 -0.2117672 0.56854451 0
8.4690905 4.8618274 -0.34769148 0
-10.25798 -1.0941603 -0.019325415 0
8.8972054 -3.069495 -1.5268738 0
8.9989996 -5.1693974 -1.5043836 0
-8.5803967 -4.7712064 0.50095683 0
-7.611383 -0.25589103 -0.53790921 0
-8.6524544 -4.75635 1.4175271 0
0.73663598 5.0403442 0.76581424 0
-3.676496 5.1358995 0.96654731 0
-2.7510507 -4.8971796 0.25273016 0
5.5099878 -5.0651288 0.62727273 0
-3.240813 -0.73337066 -0.8032769 0
3.148047 1.8072791 -1.2341115 0
-3.6519728 2.8813393 -0.82562411 0
-10.162809 -4.7413015 0.27354884 0
-10.048812 -4.7340207 0.93804967 0
-6.8892612 -4.8049126 0.62397665 0
3.0534573 4.8177094 0.73590654 0
-1.0162066 -4.9258513 0.78462845 0
-10.03907 4.9449267 1.3820301 0
-0.31162003 -1.8808556 1.0338742 0
-1.9492022 -4.9018312 1.0893296 0
-10.178486 3.6461778 -0.411681 0
-8.9737272 5.1855006 -0.52533573 0
9.7474117 -1.2979479 -0.55552506 0
-10.246532 -2.3302655 0.60302609 0
-3.4395006 -4.8729229 0.92631525 0
-1.0247374 2.030273 -0.97766638 0
9.7721462 -1.8209734 0.029262207 0
-10.13277 4.7298284 -0.056221936 0
4.9538488 1.2123555 0.66555178 0
-9.558444 0.41951877 1.5782142 0
9.7962856 0.45558929 -0.38604632 0
-10.236362 -2.7047451 0.89988172 0
-4.9097247 -2.3761973 -0.67775637 0
9.5192986 4.8399415 -0.3368119 0
9.29247 -4.4539204 -1.5330971 0
-10.153109 0.59634191 1.0774915 0
-0.341925 5.0501885 -0.11308467 0
3.2737842 2.7439368 -1.2543418 0
-10.096199 4.9078302 0.47184482 0
9.8031321 3.1841516 -1.2407441 0
-10.251287 -4.1052699 1.1541665 0
9.7763414 -2.0616581 0.1822203 0
-1.7400516 -3.0597036 -0.86573994 0
-5.2013073 5.1458936 -0.54549199 0
4.2194033 -5.0475168 -0.023767056 0
-2.2282209 5.0844221 -0.48127463 0
9.6567507 -3.7085719 -1.1679 0
-10.337177 -4.6134448 -0.05416961 0
9.2568703 4.8486691 -0.11568457 0
3.0568881 -5.0253315 -0.17598575 0
9.7469082 -1.5854393 -0.46194944 0
-4.8939214 -4.8386216 1.1854384 0
6.4507685 -4.6866188 -1.3533592 0
-10.191453 -1.3755239 1.1554155 0
-10.16858 0.74041611 0.77647436 0
-1.9992062 3.7415905 1.0642668 0
-10.093385 -0.77532232 1.6273043 0
5.6923161 -5.0708051 0.50024599 0
-10.157572 4.2491078 -0.28698719 0
-8.3569374 5.2342763 0.9756611 0
-6.6116886 -4.7999187 1.367244 0
-10.158248 2.2669635 0.40335888 0
-10.170474 1.4094536 0.5091601 0
6.5321341 -3.9324958 0.63562417 0
8.2919397 -5.1338744 -0.083791286 0
-5.2493324 0.56958461 1.30835 0
-10.132977 0.32771379 1.4978739 0
5.3548408 -4.7194118 -1.2847964 0
9.8934536 2.929889 0.30896091 0
9.1404524 -5.151619 -0.079263784 0
-1.9345535 -4.9199362 -0.13316582 0
1.9229254 4.9919729 -0.84641403 0
0.57904285 -4.9771438 -0.43859842 0
-9.5182867 -4.7370663 1.4937633 0
-0.96350831 0.82687169 -0.9655236 0
-10.243955 -0.00038885124 -0.17962131 0
9.1766081 0.50569701 0.41241008 0
-10.144144 4.437212 -0.13652691 0
1.5443856 -4.9905682 0.031147141 0
5.433547 -5.0644927 0.56075561 0
9.7489595 0.68676919 -1.2327043 0
0.05825017 -3.9661505 -0.9655177 0
5.7477245 4.9235635 -0.030768134 0
-10.16462 2.3732977 0.26275468 0
8.7666445 -5.1506977 -0.55492431 0
2.9499106 4.9777365 -0.343566 0
-10.102369 3.4434104 0.89022726 0
7.8476229 -5.1292119 -0.40412927 0
9.6957846 -2.0779517 -1.1139545 0
-0.50747418 -4.9457684 0.15002646 0
-10.109577 2.6291313 1.0618268 0
-10.168384 3.309123 -0.12916365 0
-10.270691 -3.452466 0.60961401 0
8.0871649 -4.0532317 0.54055607 0
-10.179214 3.5341194 -0.38379705 0
-10.288095 -4.0593772 0.54306185 0
2.1804647 4.9918513 -0.48342788 0
-5.2643027 5.1453018 -0.67695171 0
9.8277969 1.4672232 -0.23468111 0
-2.6490421 3.7377915 1.104714 0
-10.328135 -4.288146 -0.023119895 0
-4.2303472 5.1293988 -0.27854356 0
0.5959751 1.4253794 -1.070401 0
7.2562041 4.8903542 -0.13696033 0
2.3491478 -3.6371491 0.89174461 0
2.3105855 4.9888582 -0.5014087 0
9.8119183 4.4571028 -1.5491086 0
-10.231885 -2.2316697 0.80487162 0
-2.7757545 1.0597719 -0.85595232 0
0.99993414 5.0184131 -0.36103448 0
-7.4613624 0.40282765 1.4480706 0
9.7438231 -3.2034512 0.060632292 0
9.9215269 4.3406639 0.2635414 0
4.1067948 3.4134247 0.68903732 0
9.7866488 0.11104028 -0.41988206 0
-9.0782995 1.2292122 -0.46640107 0
-3.5171931 -4.8794923 0.36303151 0
-4.2425756 5.1285777 -0.35257909 0
9.7474642 -2.902914 0.013157648 0
0.39637792 1.7157892 0.94219416 0
-6.0759659 1.4321209 -0.65572995 0
6.4531484 -5.1097441 -1.0774686 0
9.6910934 -4.9521713 -0.17286803 0
2.5168204 2.7073135 0.7972362 0
2.0334392 -5.0000658 0.083872251 0
9.811389 -0.20554438 0.091968447 0
9.7499571 -2.0927973 -0.2331793 0
2.1163647 -5.0081 -0.34841871 0
4.9809141 -1.365486 -1.3060018 0
-10.114334 3.8262944 0.56139332 0
9.7424421 0.93660235 -1.4264292 0
9.0875959 4.8325229 -1.4688473 0
-10.259861 -0.92206782 -0.11060481 0
-4.4164052 -4.1779943 -0.68454373 0
4.7613206 4.9471917 0.17005017 0
-4.8514438 1.322737 -0.73040247 0
-6.6606731 -4.8056793 0.90090412 0
-10.148278 3.7035639 0.056224931 0
6.6786613 -0.84167582 0.58555174 0
9.8941336 4.749506 -0.32383156 0
9.7598181 -0.70451176 -0.56497473 0
6.6254392 4.8929367 -0.86899847 0
4.5485735 4.9458904 -0.22608632 0
4.6399436 4.9512539 0.27406314 0
9.6525259 4.8351436 -0.47428194 0
-10.142404 1.8803391 0.79621798 0
-10.104454 2.4511504 1.2075968 0
0.85548693 -0.87081206 0.94793475 0
-5.0175462 -4.8521008 0.081295818 0
6.9012122 -3.1604295 0.60244805 0
-9.1792212 -4.7569709 0.61536944 0
8.5295458 4.8639302 -0.11607467 0
-5.1812444 5.1711979 1.2215924 0
-3.9527912 -1.173033 -0.75318992 0
4.9454498 4.3183613 -1.3791269 0
-0.90673149 3.6288643 0.99784726 0
-4.2084141 -0.59165424 -0.74500436 0
9.1743402 -5.1640573 -0.88476574 0
-10.12964 0.24288079 1.5818441 0
2.2966092 1.3397613 -1.1749859 0
9.7846489 -1.4278417 0.092236258 0
9.711648 -4.2149863 -0.1014883 0
3.8881311 -3.3174024 0.79183626 0
-10.114138 5.2280068 0.068659902 0
-2.6707866 4.1966295 1.0999848 0
9.8883572 3.1024294 0.16555309 0
-3.5866838 -4.8915367 -0.56447482 0
9.8110952 1.4566861 -0.50088245 0
-10.07122 4.8604016 0.89232332 0
-10.189046 1.3069899 0.24525303 0
9.6992321 -4.8375826 -0.081885628 0
4.5244694 4.958622 0.61368197 0
-7.8511963 -4.7842231 0.65820336 0
8.7794199 -5.1568036 -0.95594394 0
-10.0426 5.2576809 0.15290485 0
-8.1584883 5.0557337 -0.5742951 0
7.7786951 -3.5863662 0.55354452 0
1.0807039 -4.9683313 0.89003825 0
3.6958659 2.8201072 -1.28159 0
-10.216376 -2.5593178 1.1714422 0
-5.9979458 -4.8406992 -0.54907924 0
-7.2993355 -3.005636 1.4831716 0
6.5261636 -5.0929475 0.1815457 0
3.5509694 4.9775319 0.50898653 0
-10.20798 1.926351 -0.27988845 0
-10.24431 -2.791889 0.80224931 0
9.6863832 -1.8640083 -1.3415873 0
7.3121586 -4.0774503 0.58905518 0
6.2062478 -5.0924821 -0.24774648 0
7.4522176 -5.1174474 -0.16612916 0
-9.9428654 5.2470193 -0.43563679 0
4.8970928 -2.6790907 0.72065455 0
8.9127655 4.8626995 0.35190892 0
6.1937857 4.9144373 -0.014507318 0
9.8353586 2.5179715 -0.48421392 0
-2.8404171 -3.9164548 -0.78598112 0
1.6724333 -4.1499052 0.9406082 0
4.5452371 4.9382086 -0.7585758 0
9.84021 1.0239719 0.12276072 0
9.8039255 1.6538987 -0.68652749 0
-8.4441996 5.2406616 1.2884636 0
-0.21415734 2.5972571 0.96846569 0
1.513009 -4.9953012 -0.33921775 0
2.8055522 -5.0267587 -0.63642025 0
0.13739394 1.6918279 -1.0454246 0
-1.1188173 -4.9378638 -0.18847594 0
1.7931908 -2.6481581 0.91319823 0
4.3680091 4.9566579 0.25317964 0
-9.9897861 4.7083325 1.5481875 0
-3.7068594 -4.8831096 -0.1589077 0
-6.6091194 5.084816 1.3330393 0
-10.206104 0.85948813 0.12788966 0
1.1211231 -1.8833971 -1.0591944 0
-10.18643 0.38504672 0.61371517 0
-10.125627 4.0014577 0.31692681 0
-10.185485 0.87516302 0.45557624 0
9.1520176 3.5505915 -1.6304522 0
6.5442667 4.9034843 -0.26151088 0
-10.190232 -0.019294964 0.69531584 0
3.5818379 -5.0281744 0.38561338 0
-10.291237 -2.5801461 -0.031072291 0
2.4025617 2.2085338 0.81094956 0
4.6658807 -5.0732641 -1.1486077 0
-10.297121 -2.0919552 -0.29888093 0
3.0232356 -0.10942494 0.80308604 0
-1.436671 -4.9156203 0.88115245 0
0.66147965 -4.9837661 -0.77462429 0
-10.239746 -1.8409877 0.53959268 0
2.8808477 4.9680777 -1.1066124 0
-1.9689661 2.5863471 1.0776978 0
9.8262005 0.9768787 -0.086998701 0
1.1872708 5.0091715 -0.72572559 0
-3.5847266 3.54968 -0.83866215 0
9.6723557 -2.9802971 -1.1733451 0
2.6452956 -3.7429914 -1.1292987 0
9.1008301 3.6038897 0.37605953 0
-1.2138577 -4.9453435 -0.83928919 0
-10.170858 2.9091237 -0.027629469 0
8.5627174 -5.1421671 -0.26298469 0
0.70473081 -4.9835896 -0.70013589 0
-7.5896087 -4.7860894 0.90716588 0
3.1775725 -5.0177083 0.52165014 0
-4.3393941 -2.6494431 -0.70958948 0
5.7387929 -3.7698109 0.68278599 0
-6.6054502 4.5508394 1.3398881 0
9.7271709 -4.7896881 0.35271421 0
9.6843472 -3.2301216 -0.89116794 0
9.8770266 4.1597643 -0.39166385 0
2.4389269 -5.0237598 -0.95903194 0
-5.8711252 -2.2524974 1.3844056 0
1.9241954 -1.1910423 -1.1182933 0
8.8700209 -5.1461673 -0.094701417 0
-4.7866235 -1.323203 1.3046714 0
-3.2222066 -2.1766436 -0.78530544 0
9.8186884 1.0890546 -0.24809395 0
1.1801159 -2.0719028 -1.0603634 0
-10.276986 -3.0308998 0.35871896 0
-6.3166237 2.2663922 -0.65182632 0
-10.21208 1.9947853 -0.37035322 0
9.8636866 1.996007 0.15827814 0
-2.5996768 -4.8886766 1.0550613 0
8.0145206 -1.4424409 -1.4935657 0
9.7019167 -4.1387758 -0.28573376 0
-7.0980563 -4.7938309 1.0841377 0
2.3401227 4.9803772 -1.0413774 0
6.7294641 4.9075146 0.28233781 0
-8.4348326 -4.7782269 0.22858612 0
9.6587324 4.8299913 -0.81923479 0
9.7523384 0.45830426 -1.0972577 0
6.4698234 3.3104634 0.5435046 0
9.7441063 -1.9016839 -0.39534485 0
4.0448704 4.64008 -1.3274064 0
5.7640285 -5.0726004 0.48032102 0
-10.230447 -0.99513692 0.3906258 0
-10.29102 -3.3452873 0.24313015 0
9.8474789 4.0111332 -0.81660771 0
9.8079033 2.8175733 -1.0339392 0
-10.177607 0.48422149 0.7212314 0
9.763958 2.3907084 -1.5931566 0
-7.446517 -4.7803187 1.509884 0
-10.326407 -4.4482117 0.061425913 0
9.8055916 -0.11684719 -0.033118337 0
-8.0970736 -4.7709832 1.2131479 0
7.5074482 4.872005 -1.0351166 0
2.4187868 3.7081428 0.79006612 0
-10.180857 1.3967726 0.34583783 0
0.67603892 0.98499787 0.9344945 0
-9.5300722 5.2475138 0.19349031 0
-1.4721004 2.5321612 -0.9565078 0
-9.1862803 5.2444534 0.47895733 0
9.8656912 2.092546 0.15651774 0
-8.0533295 5.2283325 1.0051241 0
-4.4975138 -4.854022 0.69912511 0
8.2601576 -5.1517377 -1.3566378 0
8.5021877 -0.15189229 -1.5409855 0
9.7281237 -3.3363464 -0.1460719 0
9.8109093 1.2011384 -0.41346893 0
-5.6724954 -4.8443661 -0.33172247 0
7.5230889 0.65099519 -1.4907608 0
-10.173414 -0.78992355 1.2397701 0
-10.160263 1.4361287 0.66474622 0
-10.236773 -2.5674005 0.84464771 0
5.7292762 4.9112115 -0.90583342 0
-5.9972324 -3.2943285 -0.59798336 0
2.8050101 -5.005661 0.81200427 0
-10.205922 -0.7478283 0.69949293 0
-6.3265467 2.8846424 1.3446327 0
9.8035507 -0.67011148 0.12965026 0
9.6799469 -1.5212383 -1.5668787 0
0.042393297 1.4640859 -1.0365006 0
7.0929952 -4.8348894 -1.3913181 0
3.1509607 4.9711547 -0.50581008 0
9.5131874 -4.673964 -1.5439018 0
-7.4855208 5.1986499 -0.21506929 0
-10.187934 -1.0404197 1.0937237 0
9.7530985 -1.0143496 -0.5639534 0
9.6246462 0.86104709 0.3798483 0
9.7151623 -1.7415302 -0.91980261 0
2.7404695 4.9865012 -0.043497752 0
-10.161872 1.8652329 0.48693061 0
-2.7739675 -4.9041529 -0.25931436 0
-10.226961 -0.10690061 0.13270491 0
1.2724047 -4.4096522 -1.0351176 0
9.8204336 3.975738 -1.2411929 0
-10.065999 -4.7466612 0.044985611 0
-10.228779 1.0054336 -0.29021281 0
-10.12447 0.8300367 1.4576628 0
-0.71601027 -1.8189993 1.0581933 0
-10.201804 1.3592563 0.020559609 0
-10.224873 -2.4816794 1.0066562 0
9.6783218 -1.6629525 -1.5429995 0
-3.2466962 1.0519232 1.1774638 0
3.3168516 4.9787202 0.25304922 0
-7.9950995 -4.7898436 0.064651579 0
-7.2563777 -4.7985091 0.53453153 0
9.7804718 -0.51620191 -0.29780307 0
-8.856945 -4.7759676 -0.22482105 0
4.0001202 -2.743906 -1.2267623 0
9.7003946 -0.98590714 -1.4258037 0
0.15485303 -0.96682376 -1.011274 0
-10.199672 -2.8543863 1.5458084 0
-10.257892 -0.1173453 -0.36348835 0
-4.6018929 -1.5472468 1.296157 0
8.0459118 -1.6227189 0.51090825 0
-10.229367 -1.5896888 0.61842811 0
-9.6810036 5.2566886 0.60609514 0
-10.269839 -0.72124887 -0.34291437 0
9.8624449 4.086432 -0.60137564 0
5.6927347 2.2975583 0.60523653 0
9.7626896 1.8348253 -1.4169832 0
-7.386344 -4.7881103 1.0614229 0
-5.1410813 -0.39690393 1.3144298 0
-8.3188124 2.510535 1.4734398 0
9.632287 -4.9640307 -1.1190828 0
7.4328194 -5.1194072 -0.32871905 0
8.297019 -5.1432571 -0.72095227 0
-8.1459541 5.2147274 -0.062947795 0
9.0762405 -3.8779061 -1.5272894 0
-6.9873037 5.1951938 0.2658532 0
6.5987473 -2.778079 -1.3878527 0
-7.8816309 -2.3398809 -0.49348956 0
9.6596155 -2.9269531 -1.3981248 0
2.4328048 4.9816794 -0.81830549 0
-9.1094742 -3.5590241 -0.40100315 0
-10.183933 1.9344587 0.10588881 0
-3.1359689 5.1258216 1.0536282 0
9.7253399 0.69298542 -1.6166277 0
9.8161221 0.0017425567 0.095115058 0
9.7806921 0.056878205 -0.49699602 0
3.6339958 0.33032781 0.75929004 0
0.47096854 -4.968039 0.030988503 0
-10.28558 -3.6334479 0.43301982 0
-10.237337 -2.3999515 0.77629226 0
9.7440968 -1.150728 -0.66119272 0
7.7975202 3.9955258 -1.5521469 0
-10.143435 2.6604068 0.50357354 0
-0.63408142 5.0681863 0.70194536 0
-6.1550345 -0.113802 1.37371 0
8.1039486 -0.37584165 0.49077511 0
-1.8146993 -4.4597969 1.1614925 0
-5.2151523 3.8420341 -0.74118161 0
9.7613525 -2.5100632 0.098617569 0
4.4936271 -0.31316903 0.71437967 0
9.6842003 -5.0274091 -0.25765783 0
-10.082091 2.9794564 1.3821077 0
9.634366 -4.2227221 -1.3477685 0
-0.69027311 -4.9486771 -0.313362 0
-10.052531 3.8412707 1.5549384 0
9.7102737 -4.0566187 -0.1797283 0
9.8177671 2.4288337 -0.73699379 0
-10.282018 -1.6679983 -0.20478469 0
3.5806863 4.9661922 -0.22706693 0
2.3009856 3.8356316 0.7956996 0
-7.5323572 3.386508 1.4129404 0
-9.3362103 -2.3145375 1.6006343 0
4.8349605 -2.3809566 0.72056574 0
3.1508443 2.7542527 0.75720006 0
-10.127226 1.4099007 1.2079535 0
-5.3998032 -0.48116732 1.3316299 0
-8.3113441 -4.4492598 1.5652158 0
-10.15729 -0.53550744 1.410341 0
0.16262367 5.0327659 -0.58237183 0
2.5837688 4.9894023 -0.070166029 0
-10.076217 5.1533289 0.70794278 0
-3.3421874 5.1108942 -0.26905173 0
9.6502104 -4.8864279 -0.85686851 0
5.7154231 -2.8792548 -1.3316001 0
9.8316813 2.3603001 -0.48787466 0
9.8054562 2.0618472 -0.80611724 0
-7.0513496 0.67928499 1.4189183 0
-10.221741 -2.9903355 1.2372268 0
9.7806215 2.4715962 -1.3524549 0
-9.9651022 -4.7318325 1.2090361 0
-10.148392 3.74282 0.040511329 0
-9.8776093 4.2870817 -0.45723894 0
6.3534689 4.3987546 0.53631425 0
-10.12322 4.4965882 0.18063956 0
9.8168707 4.111413 -1.3467692 0
-8.4475355 -2.8041921 -0.45215651 0
0.12284811 5.0497642 0.52786994 0
8.48524 4.85183 -1.0111281 0
-10.144855 -0.24221306 1.5075406 0
-10.087234 -4.7464619 0.028038323 0
9.8683205 4.6103277 -0.69177717 0
-10.171339 -1.2992239 1.4534978 0
-10.186772 -0.53340942 0.93312925 0
9.8314972 3.0994575 -0.75235224 0
3.400583 -5.0310011 -0.069897741 0
-4.1024365 -3.3360243 -0.71522045 0
-2.9779346 5.095705 -0.78720903 0
8.1456947 -5.1493797 -1.3597026 0
-10.229529 -3.8713813 1.4230632 0
6.1848946 -5.0947714 -0.43576998 0
-1.761816 4.0462646 -0.95856452 0
-10.151901 4.1444468 -0.15830444 0
-10.126376 0.61978149 1.5012287 0
9.8292503 3.5911758 -0.96263766 0
7.0528769 -5.0994916 0.49147737 0
-5.416882 -3.3344963 -0.63352835 0
9.7086239 -1.6889906 -1.0440625 0
-10.164314 -0.82464397 1.3991182 0
4.9405003 -3.7453027 -1.2719491 0
-0.9311434 -4.3779802 1.105482 0
-2.3761597 5.1038866 0.64242458 0
9.7225962 3.5117147 -1.6654068 0
-0.35816917 1.3970461 -1.0107112 0
-3.7976279 5.1346459 0.70578688 0
9.344696 4.8499336 0.097801924 0
-1.8442415 -3.9389133 1.1564255 0
-1.0730281 5.0762138 0.6204747 0
0.79345977 -4.978065 -0.19271342 0
-0.70678806 -4.9452329 -0.10056656 0
9.7673655 -0.32936317 -0.57572937 0
7.2896743 -4.7452574 0.59930354 0
-8.6609945 0.019179635 -0.47630584 0
-6.3610783 0.43854088 -0.62483776 0
8.9813051 -3.0061328 0.47109443 0
-6.6425447 -4.8185754 0.041210677 0
-8.6688023 4.7411375 -0.53840202 0
-5.8165097 0.99992466 1.337905 0
-5.1060147 5.160737 0.61151582 0
9.8478832 2.1795533 -0.16206597 0
2.4241369 -1.2576177 0.8555463 0
3.7308102 1.2340084 0.74129486 0
9.7508039 -3.8316271 0.39570513 0
-6.7482915 -4.8059363 0.75692683 0
3.6658235 4.4648457 0.70251548 0
-1.3986763 2.2799954 -0.95773017 0
-5.2875323 -4.8466692 0.065144733 0
9.7641106 -0.92707449 -0.41685733 0
-7.5996957 -4.1293674 -0.48729941 0
-5.3678465 -1.2656909 -0.66399521 0
-7.8227768 4.4206519 1.4172884 0
-5.5941925 5.1606903 -0.095566049 0
1.4636741 -4.9966087 -0.50017512 0
-10.287787 -4.6878557 0.77038372 0
-8.5800781 5.233706 0.61477238 0
9.6957712 -0.78427047 -1.5718571 0
-8.8739185 5.2352548 0.29748732 0
5.454 -1.955936 -1.3275858 0
-7.2953348 -4.7919569 0.92842168 0
-10.231 -3.7663004 1.3621144 0
-10.134124 2.6037204 0.67410266 0
-1.407095 5.0639606 -0.7028774 0
7.0285826 4.8878851 -0.63472366 0
8.9228096 -5.1637259 -1.2246701 0
5.2766752 -5.0761557 -0.46655282 0
9.6584654 -4.5831919 -0.83073944 0
2.5033312 -4.4086919 -1.1116507 0
-6.9400334 -4.8011541 0.80894113 0
-5.1379886 3.8944316 -0.74667293 0
-10.048806 4.8967195 1.2417251 0
6.4343915 -5.0971389 -0.23867883 0
-10.194383 -0.98252702 0.969019 0
-4.6974607 2.8035164 -0.75960004 0
9.6341639 -4.4722524 -1.2627443 0
-10.175292 -1.539229 1.4745226 0
2.4323354 3.3087127 -1.2095184 0
1.3698301 1.5467433 -1.120116 0
-10.213106 -3.1849356 1.4456311 0
6.8573966 4.9070592 0.43552661 0
-10.098652 2.554265 1.2648836 0
3.8192961 4.9614472 -0.20896658 0
9.8148813 -0.54719341 0.26927817 0
9.6800394 -2.737884 -1.1349345 0
-1.7286695 5.0913129 0.71230453 0
-1.5877813 5.0873861 0.64572018 0
-10.256152 -2.0057647 0.33274168 0
7.9643874 -2.0371892 0.52146924 0
-10.094253 4.2316375 0.74254781 0
9.684288 -4.0080404 -0.61690038 0
9.7724686 -1.8505208 0.044928297 0
6.0677843 4.8998499 -1.1981815 0
-0.079041362 -4.9497705 0.49283394 0
-3.7114038 5.1206484 -0.1314078 0
9.6427412 -4.3873582 -1.1541629 0
-1.4784577 -4.9137564 0.94892681 0
0.015135436 5.0433946 -0.064938873 0
-2.0611038 -4.9055238 0.67436045 0
9.7899256 -0.5214262 -0.14317203 0
-0.71999282 5.063653 0.26666489 0
1.0040183 -3.5733635 0.97451907 0
9.777132 -0.11689515 -0.49305165 0
9.7355108 -3.2780335 -0.047318667 0
7.4679937 4.88901 0.076096259 0
2.5323255 1.1598023 -1.1872541 0
-10.060944 3.9715178 1.3729079 0
-0.061231267 -4.950871 0.44291362 0
5.9968033 -5.0818572 0.18008807 0
-3.2558658 4.0665922 1.1380795 0
9.8290539 3.7852635 -1.0344793 0
9.7046347 -0.87188494 -1.3976181 0
9.8405027 1.6933736 -0.10934882 0
9.6572876 -4.530158 -0.86853802 0
-0.37450695 1.7691348 -1.0146269 0
2.7639816 -0.428009 -1.1806113 0
7.1173 1.1466918 -1.4721047 0
-9.3977594 3.0084565 -0.47012275 0
-3.227097 -4.882618 0.56659681 0
4.4977026 4.9532785 0.20805316 0
-2.1383307 -4.899313 0.98963088 0
2.2434826 3.0773115 -1.1947116 0
-8.1663465 -4.7731023 0.9677195 0
-3.7646189 5.1292968 0.38592112 0
-8.0032797 0.41894981 1.4815451 0
-4.7377191 -4.855062 0.28135446 0
-3.9075384 1.7438402 1.2093748 0
-10.251065 -3.3094647 0.87619883 0
6.2168746 2.3840024 -1.4325283 0
-10.120573 4.0282269 0.38911951 0
8.4120436 1.1052064 0.45199367 0
9.7254562 0.60662651 -1.584199 0
-10.118708 2.3445449 1.0149579 0
-7.2782488 -4.8000331 0.39829892 0
-8.8283663 0.80604124 -0.47632971 0
3.8118911 4.9489775 -1.076198 0
5.7199645 -5.0690556 0.66028059 0
8.6309881 0.66589636 -1.5598308 0
6.3439598 4.9003406 -0.76627779 0
-1.9614122 -4.9286962 -0.77363217 0
0.17943528 -1.7312218 -1.0026714 0
0.79966557 -4.9843755 -0.61725223 0
9.7202988 -1.7253906 -0.84248751 0
-8.1945848 -1.8858672 1.5239841 0
0.42604041 -4.4090519 -0.98251146 0
-10.281618 -3.9864819 0.62194175 0
9.7429466 -0.43147925 -0.93425113 0
-7.6424913 0.27467197 -0.54300708 0
-9.1780405 2.6745684 -0.47935641 0
3.3171616 -4.9356136 0.84877712 0
2.968075 4.3629746 0.74724102 0
-10.204727 -2.8550034 1.4643242 0
9.838563 2.6825893 -0.49066913 0
0.13687243 5.0357218 -0.41645998 0
-1.329958 0.54376107 -0.93899119 0
-10.236462 -3.3053832 1.1107806 0
3.6215644 0.33901778 0.75994766 0
9.7664366 -1.025875 -0.34431541 0
2.8838758 -5.0195823 -0.030532306 0
6.4356499 2.3031125 0.55897969 0
-3.0455525 5.1141582 0.38284668 0
-3.7724228 5.1284704 0.31793708 0
5.6609163 4.9050555 -1.4272364 0
2.047596 4.9888444 -0.88155019 0
5.9417214 -5.0910683 -0.53202564 0
9.8260412 3.7463305 -1.0693957 0
-2.3127759 5.1069031 0.94102025 0
-5.6224408 -0.46039063 -0.65884125 0
-2.189652 -4.9016571 0.75462896 0
9.6677723 -4.7531242 -0.62020749 0
-10.200538 -2.4445269 1.3867996 0
-10.188304 -1.2294592 1.1546359 0
4.8000145 4.9336653 -0.70331514 0
8.4442759 -5.1473098 -0.78701174 0
9.7838011 0.10954423 -0.46537548 0
-8.317009 3.4833264 1.460435 0
9.7385311 4.8209271 -1.3268017 0
2.1178021 4.9935699 -0.45573968 0
-10.138187 4.9776244 -0.23144947 0
-10.185827 1.6523761 0.17508171 0
2.234901 -0.97392744 0.86355031 0
0.71361548 -4.9688706 0.32373297 0
-0.93081909 5.0600491 -0.28484687 0
-7.9734488 5.2266779 1.0066456 0
-10.320303 -3.1109312 -0.31303722 0
5.9626002 -5.0835853 0.012072383 0
1.3729541 5.0011373 -1.0098572 0
9.84233 0.97406203 0.17468607 0
-3.2590537 0.40432039 1.1868149 0
-5.2528582 2.2953899 -0.7183395 0
-10.219176 -2.4765415 1.0969037 0
9.7138252 0.13380788 -1.6049 0
-8.4698896 -0.88568848 -0.4761934 0
9.8377304 1.5214729 -0.093333453 0
7.4921565 2.8191023 -1.5175725 0
-9.4154787 5.2600484 1.2197174 0
3.6596868 4.9556732 -0.83571774 0
8.8874092 0.23550513 -1.570067 0
9.7240286 -2.1064 -0.64741617 0
8.2571774 -3.4192457 -1.4824512 0
-4.1572347 -2.3958967 -0.72427374 0
9.8232975 0.97987276 -0.13496776 0
-4.2170472 3.8508725 -0.8033458 0
9.7941294 2.0900373 -0.99915862 0
-7.1261816 -0.039437741 1.4330956 0
-4.8022623 5.1454372 -0.0014587132 0
-5.7839971 -4.764926 1.4122872 0
-4.6641212 -4.8683357 -0.52427536 0
9.0504026 -5.1672139 -1.2803174 0
-10.14345 3.1809011 0.31918594 0
7.2720857 4.031579 0.48407489 0
6.5399818 3.1570334 -1.4628594 0
3.6936719 -3.6108851 0.80781436 0
9.8123169 2.961874 -1.0136709 0
-8.5229921 -0.30890813 1.5234995 0
-5.1665597 4.808507 -0.75701135 0
-1.1561826 2.7029393 -0.97841012 0
-8.2990322 0.61088169 -0.50664926 0
4.5898681 4.9359884 -0.84670228 0
0.92259854 -1.2092724 -1.0557876 0
4.5846014 4.9547372 0.43353504 0
1.5591373 5.0090084 -0.20076606 0
0.82700646 -4.9773602 -0.095948309 0
-4.7767863 -2.7793958 -0.68067676 0
-6.976408 -1.7898343 1.4469836 0
2.5583372 4.9864898 -0.30688459 0
-9.2403498 -4.1274028 -0.3853344 0
-4.4906163 2.0559967 1.2414846 0
3.5799797 -5.0267024 0.48405969 0
-0.68238711 -4.9394178 0.33403209 0
-10.160467 2.8174276 0.17273924 0
2.255455 3.211282 0.80680466 0
9.6758709 -3.6088417 -0.89416015 0
-10.252839 -0.72147 -0.068086974 0
-1.09238 -4.923604 0.82915968 0
-1.1940396 -4.9319615 0.10849569 0
4.3671436 1.9439485 -1.3117079 0
9.7524729 -1.0858356 -0.54878175 0
9.8020496 -1.2939904 0.32611379 0
-0.61258465 -4.951426 -0.39016426 0
-1.1451509 -4.9370732 -0.17212008 0
-7.1035233 1.1528119 1.4158858 0
9.7885818 -0.41880694 -0.20118774 0
9.7378492 -2.0996685 -0.42643154 0
9.407383 -1.8632377 0.42946023 0
3.5968781 -5.0234938 0.72881681 0
-10.165122 2.6688576 0.15007824 0
4.087594 4.9612837 0.16660912 0
9.6861677 -1.6575902 0.40940407 0
-10.1483 1.8273612 0.71965957 0
-8.1656923 -3.6769688 1.545926 0
9.7949419 0.84214425 -0.54451382 0
-1.1227419 -2.9466686 1.098423 0
-1.7464038 -4.916173 0.39661518 0
3.6357763 -4.0521688 0.81726193 0
9.7507477 -0.96025681 -0.62108976 0
-10.112999 0.99710315 1.5839291 0
-5.2668591 -2.0765877 -0.65952599 0
9.8149815 2.9664731 -0.97223282 0
9.743824 0.53668565 -1.2626067 0
2.6589892 -5.0106378 0.25961211 0
-10.168777 0.64391589 0.80741829 0
-9.6497078 -4.7495618 0.44594023 0
-5.4444456 5.1547933 -0.2847361 0
3.3804438 -3.3012269 -1.1808538 0
0.6670565 5.02842 -0.15358682 0
-9.0512447 5.232564 -0.14301331 0
-10.118882 5.0213108 0.065105438 0
-10.198084 -0.59570229 0.77235687 0
-6.13661 -0.79250121 1.3815596 0
-10.25994 -2.0644321 0.29228809 0
9.8062477 -1.1853943 0.35554135 0
2.6677027 3.3371987 0.77950853 0
3.0400374 -5.0277791 -0.36842161 0
0.37904218 -0.9568848 -1.0253425 0
-10.057185 4.8966517 1.10633 0
-6.0335503 2.1556854 -0.66795629 0
-10.253017 -2.9590118 0.72066265 0
8.244915 -0.38033023 -1.5219646 0
-1.3966848 5.0737147 -0.017867306 0
9.3395061 -3.8245232 -1.5443628 0
-10.196999 -0.89030659 0.89412403 0
9.7059631 -0.88287139 -1.3722621 0
3.3740888 1.4523628 -1.2434596 0
-6.0986066 2.185842 -0.66431177 0
-4.5505638 5.1418781 0.11695381 0
-0.91931766 4.2994494 0.98974216 0
-10.046854 5.1510324 1.1833037 0
-10.213686 0.066309638 0.28597087 0
-0.77616882 -2.9386783 1.0767725 0
9.7882614 0.062048241 -0.37648517 0
-8.0768471 5.2267771 0.8643989 0
-5.7046704 5.1621923 -0.15167969 0
9.7403049 -2.6292312 -0.19938652 0
0.64353657 -4.9798203 -0.52945495 0
4.8682175 4.9298944 -0.86397302 0
9.793067 3.927371 -1.6663574 0
1.3191367 -0.15443972 -1.0944183 0
-3.9706087 -4.8609734 0.98135477 0
9.8115606 3.4671659 -1.2046503 0
5.7217894 -2.0535264 -1.3429395 0
-10.111613 2.2752485 1.1541221 0
4.0430155 4.7088814 0.67583311 0
7.5822902 0.8708939 -1.4973555 0
-9.8301134 5.2524524 0.10010721 0
-2.3803263 2.4803851 -0.89936185 0
6.7178216 -3.5479972 -1.385051 0
-1.7569976 -4.9094744 0.84146512 0
9.5695629 4.8397875 -0.27490363 0
9.7061634 -0.75997084 -1.4125099 0
-10.272989 -2.77881 0.33412233 0
-7.7865758 2.6194332 1.4389101 0
4.4755793 -4.9217858 0.77658099 0
0.99086046 5.0309629 0.48795527 0
8.462739 2.0792227 0.43593326 0
0.02689625 5.0408692 -0.22146021 0
-6.3160205 2.5377901 1.3485752 0
-2.0540292 -1.4712692 -0.86727357 0
-7.4126487 -1.3935369 1.4688501 0
6.086297 -5.0935516 -0.49417409 0
8.9212475 4.859354 0.13433938 0
-7.1907129 -3.4626231 1.4824758 0
1.4018431 5.0066853 -0.58711338 0
3.1162925 -3.0626278 0.83644086 0
9.65769 -3.7130482 -1.1511276 0
-1.9007491 -0.29092765 -0.89244562 0
-1.0939701 5.0619874 -0.38694248 0
-1.6727761 5.0859842 0.42685887 0
9.8511572 2.9240704 -0.37256053 0
4.4614878 1.5430665 0.69177634 0
9.7319202 -0.36596304 -1.1356289 0
8.7335262 4.8383985 -1.5757393 0
-1.1595266 1.8545631 -0.96695846 0
-10.122317 0.51504123 1.6038823 0
2.7326462 3.1491842 0.77796316 0
-8.2139196 0.6412161 1.4916939 0
-2.9576886 1.4844116 1.1537658 0
-10.192899 0.77759814 0.37027672 0
-2.175431 -2.7260056 -0.84309727 0
-8.2837152 5.2114291 -0.48813319 0
3.0178239 4.991785 0.71932781 0
-7.9862165 3.0388012 1.4457628 0
9.7977781 0.82188284 -0.49151564 0
-5.9752989 -4.1460171 -0.58805913 0
9.7666531 -1.903825 -0.030198589 0
-0.18672128 3.121206 0.95981604 0
-2.7793853 2.8093266 -0.87891394 0
0.85297269 5.0113349 -1.0591048 0
-2.1234887 -4.9216161 -0.52095836 0
-10.163332 3.2658758 -0.032219179 0
9.8184195 0.92864931 -0.19568823 0
9.8705969 2.9456973 -0.066044271 0
9.1569538 4.8345904 -1.22682 0
6.0979886 4.3583417 0.55273181 0
7.088892 4.8807759 -1.0361142 0
4.837481 4.9365015 -0.45446265 0
9.7111301 0.0054589137 -1.6030387 0
-10.128903 1.929971 0.99685335 0
9.7150126 -1.0812492 -1.155816 0
1.2382114 -4.9888573 -0.29279801 0
7.0557332 -1.8497036 0.57547081 0
5.1461067 -1.3874406 0.68805599 0
-10.340333 -4.2072935 -0.24886408 0
-3.4294138 -3.342798 -0.75696903 0
9.9150496 4.2637167 0.18608235 0
-1.118705 -4.9248323 0.7068215 0
-5.4653592 -4.8300662 0.94919813 0
-3.3208859 5.1221237 0.53301793 0
-5.9635177 -4.8278413 0.38376108 0
2.8681488 1.6456991 -1.2145703 0
-6.5413566 4.1146469 -0.66235131 0
1.0040454 5.0114069 -0.83636171 0
2.6154392 4.971704 -1.2402011 0
-10.169792 1.8141109 0.37700751 0
7.0735922 -5.1123338 -0.36079121 0
-10.245031 -2.9026959 0.82979971 0
-0.45728409 1.15048 1.0027542 0
-4.4119048 5.1536179 1.1232749 0
-10.206501 -1.0635538 0.80184007 0
9.6776543 -4.3278575 -0.61094916 0
6.6373882 0.70705646 -1.4364444 0
5.2666106 4.6823936 -1.4039165 0
6.2839408 -5.1087599 -1.2538329 0
8.3455715 4.862237 -0.49763831 0
-7.5507112 -1.0960859 1.4734905 0
-1.0413183 2.9544895 1.0151515 0
-1.1099265 5.0755296 0.52025336 0
7.5435162 1.0351909 0.50691348 0
-10.197067 -1.1565571 0.98721278 0
9.699276 -1.4856246 -1.2670817 0
-10.062008 5.0250044 0.98297888 0
-10.233356 -0.26269683 0.084486157 0
-9.7359247 5.2642155 1.0439419 0
9.7043791 -2.5750463 -0.79918325 0
-2.6901622 3.1468534 1.1151022 0
-10.125864 4.5504184 0.11886697 0
5.601089 -5.0932655 -1.1740824 0
4.2255783 0.40570328 0.72151542 0
-10.10512 1.6031373 1.4968662 0
-10.2611 -3.046313 0.62092543 0
9.7801113 -2.0230887 0.22949745 0
9.7698593 1.1402087 -1.0553458 0
-8.0306587 5.2215986 0.57526249 0
-2.1793852 -1.1735542 1.1406095 0
9.7387877 -1.6715304 -0.56273025 0
-4.9381542 2.722508 1.2604723 0
0.88586324 5.0095296 -1.135694 0
-0.22367612 -4.9664073 -0.85849023 0
9.6670437 -3.0418522 -1.2374221 0
-10.220361 -3.9100151 1.5849136 0
-10.211331 1.0759835 -0.0331949 0
9.7409344 -0.47295859 -0.9521004 0
-0.68114954 -0.25301963 1.0352718 0
3.157613 4.96275 -1.0735413 0
-10.239848 -1.3678303 0.37054425 0
0.93674463 5.0340042 0.61882025 0
5.7866797 -5.0892606 -0.63140053 0
4.9265575 4.2871137 -1.3775384 0
1.742924 -3.3185825 0.92520839 0
-9.8219461 2.3683486 -0.43526974 0
-10.145621 2.7623608 0.4321647 0
-6.537034 -4.8156481 0.39441499 0
8.0570431 -4.3012543 0.54571569 0
-0.34590086 5.039588 -0.84698868 0
-1.2854503 5.0586514 -0.89217287 0
-10.255479 -3.7468104 0.95960647 0
9.3374605 4.8251271 -1.6165736 0
-10.208266 1.1713921 -0.017412174 0
-6.1735816 -2.187618 -0.60168821 0
9.7242765 -1.3725638 -0.90303099 0
9.6404171 -3.8823612 -1.3703879 0
1.2209947 -4.9815669 0.18317801 0
-10.168686 -1.2684411 1.4854795 0
9.7659769 1.3879322 -1.205737 0
3.7589843 3.7314813 0.70644361 0
9.8529501 3.4826477 -0.54120523 0
9.7297802 0.32835746 -1.415861 0
5.916152 4.9193077 -0.080263294 0
0.28398657 -4.9647751 -0.01441266 0
2.1786749 4.9262691 -1.2151875 0
5.5218897 4.9185991 -0.69736052 0
7.2018504 4.8933072 -0.012470994 0
9.8057861 3.3128066 -1.2433766 0
-10.268809 -3.3203995 0.59329796 0
3.989588 -3.236865 -1.2195742 0
9.8562298 2.674283 -0.20221552 0
9.7113962 -4.282917 -0.081520848 0
-6.8261209 -4.8082342 0.48686475 0
1.1129524 5.0324559 0.76652032 0
2.3423016 1.6987573 -1.1825842 0
-10.256111 -3.6332254 0.90919876 0
9.743042 -2.9945171 -0.025918402 0
5.7839222 -5.089797 -0.6722399 0
9.7278452 -2.9949942 -0.27134222 0
-8.3217831 5.2286062 0.63688129 0
-6.5335832 -4.8055744 1.0913513 0
7.5216527 4.8934207 0.45641771 0
6.0739818 4.8995285 -1.2113278 0
9.6428766 -3.2704749 -1.547122 0
-2.5373342 -4.8941607 0.76822603 0
4.8144288 4.9435301 -0.0048868796 0
-1.4689993 5.0831141 0.5235216 0
2.5373156 4.9974756 0.41743338 0
9.5461836 -5.1675448 -0.58819687 0
0.21850498 5.04531 0.35984337 0
9.8206186 2.5752892 -0.74271685 0
-10.290588 -3.8580387 0.43152383 0
0.55797631 3.7579732 0.90508276 0
6.3201861 4.9125142 0.035651445 0
-10.259928 -0.89947522 -0.11966959 0
5.9296837 4.9270926 0.47401169 0
1.7879533 4.9902973 -1.1560954 0
-10.299618 -3.7051156 0.23149037 0
-10.201371 2.1178455 -0.24082911 0
-3.3275402 5.1205621 0.41613951 0
-10.303064 -3.0764236 -0.04664243 0
9.8339405 3.1635604 -0.73555082 0
-1.2980329 0.095828004 -0.93503922 0
-1.4783057 -1.7921729 1.1052257 0
-10.280456 -3.4070919 0.43574005 0
-10.271111 -2.6860096 0.33164999 0
9.8774271 2.9514613 0.042306099 0
-10.180403 3.5188658 -0.39761087 0
9.7933321 2.4615796 -1.1434927 0
-6.1678896 -4.8207598 0.57554954 0
-2.4478674 4.5599122 -0.92272377 0
-5.6687136 -4.8434815 -0.26551345 0
-10.248631 -3.882086 1.118124 0
9.7150688 -4.7163877 0.13119157 0
9.7397051 -1.4365393 -0.63104886 0
5.1561003 4.9443097 0.54128706 0
0.87111288 3.0247087 0.89533484 0
-7.0284214 -4.8059025 0.35533428 0
3.501739 4.0409436 0.71833384 0
-10.148314 1.3376429 0.89270431 0
-10.143263 4.1563983 -0.022920594 0
-10.281197 -4.7378874 0.3373726 0
-10.04303 4.9253001 1.3249704 0
8.3454971 4.8497086 -1.3583405 0
-7.2235823 4.5697222 -0.62597209 0
-10.254267 -0.4629052 -0.18263595 0
-9.3678083 5.2596765 1.2628922 0
-3.9970825 -4.7044449 1.3004024 0
-10.192199 1.6061834 0.08844322 0
-1.5612203 -4.1477962 -0.86243618 0
-1.7428498 -3.4355412 1.1434511 0
-10.226365 -0.73975754 0.36625135 0
3.3836536 4.9826908 0.62212604 0
4.6325297 4.9328623 -0.99993265 0
-10.246801 -1.8279693 0.42097217 0
-10.057732 5.2512765 -0.30882201 0
9.7946701 2.4712124 -1.1252762 0
-4.9213867 -4.8391542 1.1092576 0
9.6929293 -0.8340354 -1.6001892 0
0.55278873 -3.1192551 0.99655122 0
-10.156425 0.27068609 1.1391138 0
9.8139696 0.94691622 -0.27407241 0
8.4560413 -5.1342711 0.12556365 0
-7.5935855 5.2212219 1.1795728 0
9.8028002 1.8436605 -0.77184331 0
3.2426305 3.8434033 0.73705935 0
-4.1821785 5.1349344 0.17114012 0
-8.659667 -4.761085 1.0818725 0
9.6745272 -2.8031416 -1.2009385 0
0.11304301 4.5399809 -1.0816582 0
9.7930479 2.2806242 -1.0840632 0
7.8441668 -5.1395044 -1.116132 0
7.6689634 4.8652687 -1.2649401 0
-8.4521084 -4.7833629 -0.14911686 0
-9.9785299 4.6979976 -0.45641124 0
-10.23785 -4.0847139 1.3640591 0
9.8629484 3.4819479 -0.37937155 0
5.65587 -5.0944495 -1.1764307 0
-1.4629874 -0.29196572 1.0843908 0
9.8376942 1.2642413 -0.0029073658 0
-2.6466138 1.1005921 -0.86452132 0
-10.221099 -3.427654 1.4023184 0
9.8618717 2.6352456 -0.097210765 0
-2.4371798 2.3529267 1.1098977 0
6.8954372 -5.1161227 -0.87793422 0
-10.119477 4.7358198 -0.44815055 0
6.7919822 -5.1154008 -0.97748905 0
-10.091196 3.6317987 1.0041683 0
-10.260555 -1.8753462 0.21544753 0
-10.14567 -0.090697452 1.440783 0
5.8399572 -5.0754967 0.39086807 0
9.7675772 1.7125926 -1.2947435 0
9.7608376 -3.301774 0.37040225 0
-10.18904 1.336792 0.23480156 0
-5.5958557 1.4194419 -0.68540788 0
-3.3175919 3.5643029 1.1485738 0
9.7971478 1.8787386 -0.8756088 0
5.6827145 -5.0860114 -0.5581184 0
-1.3334794 0.11407644 1.0709585 0
-1.0437827 5.0749917 0.57868004 0
-4.0383596 -4.8699398 0.26775792 0
8.3465347 -5.1301732 0.24916181 0
3.182184 3.665436 -1.2608603 0
6.6556158 0.68444848 0.56675822 0
-10.20283 0.65488589 0.25318503 0
1.8921298 0.17415294 -1.1343933 0
9.7300434 0.30535021 -1.403479 0
0.7027635 2.4869795 0.91292697 0
8.5292978 -0.10643707 -1.5432732 0
-6.9669662 -4.8108478 0.10424857 0
-7.8952355 -2.4822805 1.5132796 0
6.8872881 1.3200036 -1.4601029 0
9.3907518 0.41938898 0.40024176 0
-5.661272 -4.8372006 0.17665665 0
-6.9069576 0.73505723 1.4092029 0
9.6482668 -3.4451549 -1.3982093 0
-6.8271346 -4.1891208 -0.53453362 0
-0.88854641 -4.1981287 1.1004503 0
-9.627265 5.2579017 0.76690096 0
-10.039495 4.6746564 1.4707663 0
-5.6682744 -4.8350644 0.31329334 0
-6.716001 -4.8160181 0.11095742 0
-10.046156 4.1969666 1.532135 0
-10.275758 -4.5268769 0.90784758 0
4.3465357 -0.84882373 0.73062277 0
7.1105704 -5.1128702 -0.34434769 0
9.8460045 0.88905996 0.26414385 0
9.7320194 0.31768072 -1.375896 0
-7.7722492 -0.7140851 1.4821997 0
1.5348561 -1.5104871 -1.0898564 0
8.5385208 4.8546004 -0.74399453 0
-6.2721 -0.4107987 1.3849235 0
5.4632835 -4.9307003 -1.2887374 0
-10.062746 5.2503324 -0.38091627 0
-10.213446 0.010589266 0.30957165 0
-6.7739878 2.124939 1.3825164 0
-5.6249223 -4.8438396 -0.22695252 0
8.606452 -1.6352221 -1.5278081 0
-5.4359727 1.1457957 1.3123158 0
6.637691 -5.1042275 -0.4324618 0
5.755537 4.6446486 0.57022572 0
-8.2979031 -4.7674332 1.1674241 0
9.8211527 1.3114359 -0.28694591 0
3.2491038 -5.0208335 0.41010839 0
-4.2367649 -4.8688293 0.057986993 0
2.7572424 -0.43624124 -1.1800832 0
8.1427956 -0.99899554 -1.507417 0
9.1065712 4.832624 -1.4345294 0
8.4333372 -5.1533494 -1.2176545 0
0.96958321 -2.4421542 -1.0423687 0
9.7257175 -3.994952 0.048053347 0
6.3762903 -5.0885458 0.26781064 0
-9.17873 -4.7684941 -0.17542449 0
5.6965542 4.9273348 0.15449984 0
-1.3870395 3.3942583 -0.97322124 0
0.82392061 1.5319024 -1.0859829 0
8.7307911 -5.1575708 -1.0787448 0
-10.297019 -4.1446605 0.42900178 0
-8.3298016 0.32575086 1.5030786 0
9.705698 -0.51746541 -1.5058278 0
9.832612 1.794673 -0.27271464 0
8.9744406 -1.9922056 -1.5459528 0
9.8051281 -1.2679822 0.36666936 0
9.7324581 -4.3790321 0.29288015 0
0.46669644 -3.3131971 1.0044736 0
5.5554452 2.350261 -1.3909634 0
-9.8327017 1.6304358 -0.42482135 0
6.4677725 4.896812 -0.83013344 0
9.718689 -0.94001216 -1.146371 0
-6.6575284 -4.7989731 1.3660918 0
6.9330068 -5.1215539 -1.1968338 0
9.6718044 -1.9305812 -1.5536424 0
9.673214 -4.7358136 -0.53838736 0
0.94221133 -2.6561987 0.96620584 0
-10.16694 0.040935218 1.0504458 0
0.23060152 -1.4907789 0.99499726 0
-1.2622412 -4.9227805 0.64081103 0
-10.153442 0.10861323 1.2446522 0
-2.9165218 0.67622411 1.1619178 0
4.9208875 -3.7092919 -1.2712071 0
3.5665424 4.9544268 -1.0556563 0
9.8376684 3.1612399 -0.67448288 0
0.23829719 -0.74351025 0.98461509 0
-8.3724728 -4.2688198 1.5666244 0
-1.25667 5.0730743 0.14002883 0
-0.8012526 -0.9683336 -0.95181781 0
-7.0599422 -4.7922978 1.2444043 0
-0.64680058 5.047576 -0.73211396 0
-9.2792578 -4.74547 1.2611496 0
8.6959906 4.8548594 -0.49917245 0
5.3815503 0.19670993 0.65242445 0
4.1422133 -0.12594289 0.73374385 0
-9.6548815 -4.7527952 0.21638866 0
1.4639183 -4.9794631 0.6779393 0
7.2641578 4.8761802 -1.0990827 0
7.8705678 -1.3842771 -1.4853877 0
-10.045218 5.0751567 1.2365891 0
-0.52779901 -4.1956158 1.0779911 0
-5.3929853 -4.8382535 0.49115047 0
2.783107 1.6238089 0.79504251 0
-10.290321 -4.6121111 0.70262426 0
9.681386 -2.5503914 -1.1795045 0
9.8648663 1.8613445 0.22498101 0
-10.278741 -4.3594279 0.80038416 0
-10.191686 -4.7249465 1.3553528 0
-3.5319843 -4.8830585 0.096738555 0
3.4204342 2.7905519 -1.2640761 0
-8.8065405 5.243422 0.9556216 0
3.4465003 -1.2873666 0.79238546 0
3.8051291 -5.0477977 -0.64035636 0
-10.075059 3.8565974 1.1854335 0
6.2612782 4.9030657 -0.6982916 0
9.1407175 -5.1456494 0.33116257 0
-7.1818547 -0.63883871 1.4445006 0
-8.5589762 5.2212043 -0.21356748 0
-9.778964 -4.7525349 0.055359773 0
-10.183842 -1.0637704 1.1681286 0
9.7051744 -4.2929339 -0.17853156 0
0.81272101 3.7836976 0.88890564 0
0.023701286 -4.9686146 -0.65343332 0
-10.200875 2.2347357 -0.27415743 0
-9.2015657 5.237371 -0.029565996 0
1.2707274 -4.9935284 -0.56676424 0
1.1623788 5.0195374 -0.049579378 0
-10.140518 0.4218823 1.3426957 0
1.0108131 -4.9782476 0.10811686 0
3.3183076 -5.032517 -0.29264635 0
-2.8749614 -4.8875508 0.73547983 0
-4.8368869 4.3820858 1.2321821 0
-5.3222313 0.9323442 1.308074 0
-7.8599634 5.2256765 1.1014823 0
-2.5398767 5.1070938 0.62669224 0
0.57967848 -4.9827147 -0.82034534 0
9.7527647 -2.4497395 -0.061510578 0
2.2151985 -1.3905457 -1.1337394 0
-5.4534373 5.1611614 0.139725 0
1.4528944 -4.9917178 -0.17973647 0
-10.169455 4.0227399 -0.39893541 0
-10.288271 -4.669281 0.75599784 0
4.4175053 4.9568796 0.33978453 0
-10.199039 -2.8161139 1.5424988 0
9.7909641 1.2249821 0.36468583 0
-0.39239302 -1.7888498 -0.96635997 0
-5.577415 2.3872125 -0.6993804 0
0.98314005 5.0190287 -0.34295568 0
-6.4622245 2.2403288 1.3616064 0
-3.863513 5.0901551 1.1622882 0
-6.4368315 -4.8313231 -0.53784609 0
8.8402605 -5.1509776 -0.46801749 0
-8.2263441 -4.1345534 1.5557609 0
-4.2925944 0.78332949 -0.75799435 0
6.3403945 0.97477823 0.58250606 0
-7.3556075 1.7900441 1.4231112 0
-7.4739161 2.5737424 1.4200792 0
9.6599627 -4.3586874 -0.88597417 0
-2.8235574 5.0916548 -0.84284735 0
4.7661996 -5.075458 -1.1546607 0
9.7431917 -2.8407738 -0.077890284 0
-4.7896385 3.1585183 1.2454612 0
-7.0185199 2.6558001 1.390682 0
-6.2793078 2.6342447 1.3450147 0
-10.231631 -1.0874761 0.40415323 0
-5.7365766 -4.8293748 0.60563946 0
-1.4642751 1.5140674 -0.94350111 0
7.6918964 -5.1216655 -0.11032052 0
1.7219797 5.0003309 -0.56202978 0
-7.5025711 2.0431125 1.4288932 0
-4.6987171 1.8398857 -0.74675065 0
-9.0612822 -4.7592869 0.62633687 0
-10.146134 4.7583585 -0.2823081 0
1.200254 -4.9896688 -0.40327254 0
-10.070544 4.9644351 0.86645097 0
9.7383089 -1.9195697 -0.48272297 0
9.720993 -0.15176062 -1.3880168 0
8.8709879 -3.5986657 -1.5182308 0
-9.2416306 -4.7625914 0.13931946 0
9.7604818 -0.84859371 -0.50326985 0
-3.7509902 -4.8638716 1.0989151 0
-1.8004541 3.3852301 -0.9474017 0
3.1564662 -4.3433728 0.85091758 0
