# .PCD v0.7 - Point Cloud Data file format
VERSION 0.7
FIELDS x y z intensity
SIZE 4 4 4 4
TYPE F F F F
COUNT 1 1 1 1
WIDTH 1796
HEIGHT 1
VIEWPOINT 0 0 0 1 0 0 0
POINTS 1796
DATA ascii
10 -1.1777946 0.19974266 0
-5.3478165 4.812119 1 0
-8.196681 -4.4732761 1 0
-5.4606023 -5 0.37678257 0
5.7324891 -5 -0.95510316 0
10 -0.53206432 0.75352085 0
-5.1182895 5 -0.70608646 0
10 2.7058334 -0.48280278 0
2.1930585 -3.3461914 -1 0
-0.7145164 -1.9490764 1 0
10 4.6039476 0.275094 0
2.8489809 1.7131068 1 0
-0.64810616 -2.1332109 1 0
-1.1600397 0.016408522 1 0
5.8879852 -5 0.71823919 0
4.4158082 -5 0.93428004 0
-4.9151244 3.9127901 -1 0
10 -2.0870745 -0.13286629 0
-4.1063013 -5 -0.73805165 0
4.4033976 -3.8125081 1 0
9.316453 -1.1215113 -1 0
-2.3280773 1.3457577 1 0
10 4.8468637 0.73433334 0
-10 2.8546376 -0.26952973 0
10 4.3832507 -0.82086444 0
-6.9618196 -4.0530353 1 0
-0.54968011 -5 -0.081972897 0
-10 -3.6196928 0.37711298 0
-6.8694506 -2.7781367 -1 0
-0.077879444 1.4515697 -1 0
4.4589624 5 -0.88881183 0
-10 3.645766 -0.0079864571 0
10 -4.1590204 -0.019259339 0
-1.8057923 -0.25609809 1 0
-4.243907 2.0183208 1 0
-1.2894144 5 0.56011158 0
10 -4.7091131 -0.22995827 0
0.68373835 5 0.83486754 0
10 4.9244428 -0.21858087 0
-0.74830133 -5 -0.89312679 0
10 -4.3572297 0.13997908 0
8.2889013 5 0.72024655 0
-9.261034 3.9044826 -1 0
6.2266741 4.991168 -1 0
7.438138 5 0.03845568 0
-10 3.1675518 -0.86233813 0
-0.50854856 -0.46074691 -1 0
10 -0.89804238 0.11353746 0
-6.1918674 -5 -0.71763527 0
-0.10871461 -0.27092472 -1 0
10 2.5648625 0.15084948 0
-10 -3.2538443 -0.73806351 0
3.3499405 5 -0.41025433 0
-10 -1.4898874 -0.015456269 0
10 -4.3906727 0.85237741 0
2.036087 -4.8245592 -1 0
-10 -0.96433842 0.72193712 0
4.2236557 1.2013648 -1 0
-4.4309959 4.8987217 -1 0
10 4.1344914 0.79514831 0
-8.4242392 1.2075377 1 0
-6.88833 -5 -0.39578918 0
8.8073473 -0.91177094 1 0
2.1564524 -3.0419526 1 0
-4.9609046 5 0.95166492 0
-0.93068331 -2.2112863 1 0
-7.2717195 0.97168213 1 0
6.2434754 5 0.071200326 0
1.5148389 1.7684203 1 0
-6.5652132 5 0.37245426 0
-10 -0.88000387 -0.072480775 0
-8.5316601 -5 -0.55459517 0
7.5361314 -0.068705596 1 0
0.73565596 -1.3428898 -1 0
-2.9632113 1.9344767 -1 0
-3.2744305 5 0.94046229 0
3.1021426 3.7248037 -1 0
-10 -3.2085042 0.90248364 0
4.2947984 2.8697493 -1 0
-8.0885983 5 -0.25819269 0
4.6806955 5 -0.41077873 0
10 -0.89290518 0.27351853 0
6.8764076 5 -0.78489339 0
-0.9763 1.2295928 1 0
-8.233408 -1.1002173 1 0
6.9964848 -1.7771286 1 0
-4.2513323 -5 0.47430697 0
-9.425354 -3.4765031 1 0
-7.2219315 -5 -0.90878528 0
-10 1.707971 -0.084336825 0
-5.0375123 1.2065521 1 0
-0.48626384 5 0.5654313 0
10 2.321887 -0.17574364 0
-10 4.2758904 -0.88042212 0
9.0684443 5 -0.94164032 0
-10 -3.8931768 -0.8362121 0
-10 3.2816076 0.72411525 0
-1.4317244 -2.6999319 -1 0
-2.0466447 -0.30247858 1 0
10 2.547364 -0.326152 0
-10 -2.102005 -0.33938655 0
6.673171 1.1989219 -1 0
-4.7398462 4.2214489 -1 0
-9.4624195 5 -0.9243511 0
2.6997087 1.678139 1 0
6.7228575 -4.5636187 1 0
10 -0.58052921 -0.46185362 0
-2.4398882 5 0.17223695 0
-8.9490089 5 -0.11249433 0
6.6436391 -4.2190189 1 0
-8.2562017 5 -0.35991937 0
-4.0436797 5 -0.67505062 0
-0.49852446 5 0.31948861 0
7.4952703 5 -0.39791262 0
10 4.8783779 -0.96031338 0
8.648818 -0.73608184 -1 0
-0.16793007 -5 -0.74511063 0
10 2.5171974 0.82133651 0
-9.1148634 5 -0.19375184 0
-10 4.208087 -0.087124139 0
5.5270104 -5 -0.71939135 0
-2.8405991 1.5932989 -1 0
-10 -1.8783365 0.027314747 0
-2.1712677 -5 0.76988566 0
-10 2.1194155 0.52380669 0
-10 1.5187536 0.10416716 0
2.8058877 -3.4462445 -1 0
7.9287386 5 -0.65921402 0
-10 -1.8348192 -0.53618109 0
-2.5194938 -5 -0.80518997 0
9.2011633 -4.0431724 -1 0
-3.8963447 -5 -0.37035647 0
-10 3.7834775 0.32733694 0
-2.8851657 -2.6844015 -1 0
-2.9585867 5 -0.43407765 0
9.9276047 5 0.36145362 0
9.3720341 -0.50189197 1 0
1.9709674 -1.8101577 1 0
9.1894121 5 -0.024698896 0
6.2659783 5 -0.93530166 0
-7.4288564 5 -0.13692428 0
-9.6683321 5 -0.0068683266 0
10 -2.5255635 0.99975657 0
-6.210062 -5 -0.64932972 0
-7.3179493 -5 0.18489857 0
5.2173319 -0.10647804 1 0
1.5286026 -5 -0.43611923 0
-4.1042056 -5 0.2478433 0
3.8057871 -0.46550873 1 0
-3.8060358 5 -0.79099697 0
-8.4278488 -3.8602805 -1 0
1.4902817 -1.3181843 -1 0
-7.5547032 -5 -0.62754095 0
9.8633699 -5 0.5381248 0
3.3054464 1.5401595 -1 0
-2.7047832 2.5797679 -1 0
-3.8589711 2.8662078 1 0
6.2253957 -0.80055863 1 0
-10 4.8680768 0.033146814 0
2.1124198 -1.5040767 1 0
0.28038731 -5 -0.76879561 0
-6.7461462 -5 0.52240515 0
8.7552681 5 -0.0059111319 0
-10 -2.756325 0.71925867 0
10 -2.4551289 -0.95007801 0
-10 -2.0970159 0.85774499 0
-7.679028 5 0.31077385 0
10 -0.37533295 0.13787855 0
-3.1534591 -3.2843523 1 0
6.577322 5 0.93206728 0
-10 4.2934599 0.57402784 0
7.0989342 5 -0.86116052 0
-0.3956793 2.18539 -1 0
-3.5598674 0.017502682 -1 0
-9.8404846 1.8220311 -1 0
-10 -2.2567332 -0.86534703 0
4.0778947 5 -0.20635691 0
9.5474453 -1.9201796 1 0
-2.0929081 -3.6340089 1 0
10 4.4611974 0.99499625 0
10 0.0011627031 -0.89520413 0
1.1473502 5 -0.058741309 0
-10 -1.9635618 -0.7912237 0
2.3651869 -2.6614575 1 0
-8.7888947 5 0.16695358 0
5.5447655 5 -0.18493727 0
10 -1.2621225 -0.15925981 0
7.5367641 0.47492343 -1 0
-8.5458641 5 -0.57415098 0
-5.6515884 -4.8085804 -1 0
-2.6403086 -5 0.17951752 0
-10 1.8635974 0.49422836 0
0.7973457 -2.1159627 -1 0
-9.7579575 -2.9124599 -1 0
-7.0943418 -5 0.098271929 0
-7.8267975 5 -0.88918507 0
10 -0.65413517 0.74023324 0
3.9680312 2.9899347 1 0
-10 -0.41185394 0.67566073 0
8.6988726 2.9236162 1 0
-5.3729062 0.83038104 -1 0
-10 3.585259 -0.40492624 0
10 -3.330754 -0.97622293 0
-10 4.4377542 -0.83855504 0
-10 1.7559994 -0.31264049 0
-10 1.0080748 -0.96401793 0
9.5418787 -2.9626768 -1 0
10 3.6068807 0.2245525 0
-1.3259732 5 0.45637396 0
-3.0153992 3.8943379 -1 0
-0.14680399 -4.8012009 1 0
-3.7874975 -1.684701 -1 0
9.8691692 2.7113812 -1 0
-5.2253709 1.6720593 -1 0
-3.8966925 -5 0.29763615 0
-10 3.4021251 0.67479634 0
-9.619915 5 0.50401664 0
-10 4.2078505 -0.27307555 0
6.9938583 -4.2451982 1 0
0.99438477 5 -0.60682654 0
10 1.4098896 -0.37915644 0
10 -1.3975793 -0.88847578 0
-6.8566833 -5 0.91002041 0
-4.3317432 -3.8755758 1 0
2.5019939 -2.1572177 -1 0
-2.8161464 5 0.062096208 0
-1.9705024 5 -0.75913972 0
-8.2992325 -5 0.83113897 0
5.6143241 5 0.77956456 0
10 4.2804914 -0.0096674981 0
-2.9144106 0.32029453 1 0
10 2.3686309 -0.87781221 0
-3.3012142 -3.3171737 1 0
-10 4.5398536 0.13801347 0
-2.0534806 -1.3561486 -1 0
4.2046041 -5 -0.32260233 0
-3.5426841 -5 -0.78916228 0
-2.5600998 5 0.35346112 0
-5.3042793 4.1365137 1 0
5.2524858 -1.5306016 1 0
-3.4009781 1.9865754 1 0
-10 2.0951455 0.13004628 0
-4.0372114 5 0.30653065 0
-3.3452346 4.0536847 1 0
4.7014947 -3.3829992 1 0
-6.4382901 5 0.99850881 0
-8.6630716 -0.46171263 1 0
-7.2855873 -5 -0.010891337 0
-10 -2.627744 0.7911033 0
10 -2.1894398 -0.56658608 0
9.9273205 5 0.28899565 0
5.6701436 -2.3300254 1 0
10 -2.3119717 -0.70628947 0
6.060514 5 0.37134218 0
-9.2086773 2.5086563 -1 0
-3.7001545 -2.4421017 -1 0
8.3403502 -3.686913 -1 0
10 -3.4186499 0.60453027 0
4.8763309 -1.1301234 -1 0
3.0308168 5 0.065335944 0
10 3.1572826 0.9449296 0
-1.6022336 5 -0.91772479 0
-8.2812986 -5 0.13802327 0
-8.9683933 5 0.11061582 0
-0.27676237 0.52262151 -1 0
-5.8267746 -3.3066409 1 0
-10 -2.919585 0.54700482 0
-0.75908518 2.8085301 -1 0
-10 1.1392486 0.90859914 0
-9.7551613 5 0.40099838 0
1.1115087 -0.017257055 1 0
-5.60638 -2.5219746 -1 0
-10 4.7302656 0.67603737 0
-5.3505235 4.4596972 -1 0
0.77369976 -5 0.19994214 0
10 2.2277374 0.70717943 0
4.2165318 -0.47778758 -1 0
-1.4256389 5 0.73734283 0
-8.411377 5 -0.96326911 0
2.3942471 4.035183 1 0
-6.8792191 3.0361466 -1 0
-4.9792957 4.6748772 -1 0
4.0075459 -4.0646262 1 0
-4.2458739 -5 -0.55551696 0
4.0279312 -2.7898633 1 0
4.8621264 -1.2791528 1 0
-5.9398808 5 0.66356629 0
1.8057649 4.4239659 -1 0
-7.9032245 -2.6679964 1 0
-5.0000854 -5 0.6898846 0
10 -4.9883461 -0.056218911 0
9.05655 -1.4944063 -1 0
-5.1710162 5 0.12849768 0
10 -1.6848354 -0.45539016 0
-6.5864086 0.65547615 -1 0
10 1.5179497 -0.33569941 0
7.240664 -1.5995035 -1 0
-5.3520536 -5 0.75470793 0
10 2.2080889 0.21431971 0
10 -2.7343514 0.15165903 0
-10 -1.8018906 0.73566544 0
-2.7977197 5 -0.35822761 0
-10 -3.3914158 -0.059101935 0
-2.0776107 -3.619622 -1 0
-5.6352158 5 0.21886823 0
-10 -0.60563487 -0.67999274 0
-10 -0.1255129 -0.78498757 0
-9.609725 5 -0.40115011 0
7.2799773 3.3429711 -1 0
1.0395387 -5 -0.43762055 0
-10 -3.2339718 0.4346129 0
-3.8860354 5 -0.28734604 0
0.30067989 5 -0.93195641 0
-0.5442822 -0.33574951 -1 0
-8.9796209 3.5547771 1 0
1.2410367 4.9113588 -1 0
3.0885413 2.1657889 1 0
2.8841436 1.8906941 -1 0
-10 -0.47932681 -0.89323616 0
-7.7191296 3.3799717 1 0
8.7305002 4.1695361 -1 0
1.9882631 -5 0.74828917 0
10 -2.7252724 -0.27419111 0
4.4053946 -5 -0.51094764 0
-10 -2.5669582 0.92834169 0
6.9985271 5 0.40098351 0
-10 1.2899765 0.0371181 0
8.2330866 5 -0.030518228 0
-8.7004633 3.074924 1 0
3.1190517 2.2829306 1 0
3.8941762 -5 -0.71280736 0
9.4051409 5 -0.13645893 0
10 -1.3065879 0.51449919 0
7.9588699 1.2433816 1 0
9.6203156 2.8189254 -1 0
10 0.054257289 -0.76507735 0
-10 3.0096159 -0.83099717 0
-10 -2.1805325 0.23208179 0
0.58335584 -5 -0.53168887 0
-7.424304 -5 -0.87011236 0
10 -0.95503575 -0.096496768 0
-3.2978904 -5 -0.12664568 0
-10 -2.5781965 -0.84353322 0
-4.2157784 -2.6105394 1 0
-10 0.95927215 -0.59285843 0
0.42368808 -5 -0.077795625 0
9.3862562 -4.8561931 -1 0
-3.3401165 -5 -0.12758201 0
-4.2544184 5 0.0091101918 0
10 -3.2333746 0.87638867 0
-10 3.7894244 -0.12773234 0
4.9067378 0.42927417 1 0
-10 -1.8422823 -0.0079078292 0
-10 3.3356318 0.58852273 0
7.0330019 1.7130094 1 0
-2.8957155 -1.1660262 1 0
-2.0628893 2.9165163 1 0
10 3.5143352 -0.10476729 0
-9.4005327 5 -0.98353571 0
10 1.7679847 0.2849111 0
-9.4841442 -5 -0.51571018 0
5.3864031 5 -0.11488936 0
-10 1.1898261 0.89995128 0
4.9098043 1.5072862 1 0
10 -3.4216557 -0.10236995 0
1.03892 -1.4493604 1 0
3.6004586 5 0.67290658 0
8.2930326 -1.1975079 -1 0
-10 4.6584058 0.74517733 0
-5.2433224 -3.975961 -1 0
5.2493358 5 -0.36648083 0
8.8135605 -0.13202459 -1 0
-6.2590122 -5 -0.97957838 0
-10 -4.8171 -0.92021716 0
-1.5107265 -4.1071444 -1 0
-10 0.42448846 0.99628979 0
5.8268332 -5 -0.61356622 0
-0.049590301 0.074231751 -1 0
3.1850665 2.3957324 -1 0
10 -2.4604399 -0.68188548 0
4.2759328 3.3074598 -1 0
7.2806063 -1.7035077 1 0
-8.5488529 5 -0.13488476 0
10 3.2293017 0.11327989 0
-9.5596037 4.4185905 1 0
-9.9249048 -0.21002963 1 0
-10 2.8341556 -0.81073123 0
9.9080572 -0.79110175 -1 0
0.78051507 -5 -0.58817482 0
-4.2707143 -5 -0.28415379 0
-4.0782814 -3.8416979 -1 0
5.0253072 -5 0.13721737 0
-1.580869 -5 -0.77253598 0
10 -0.89865088 -0.3102645 0
10 -3.1585553 -0.4860664 0
7.9315434 -1.8183689 -1 0
-8.256361 2.6247914 -1 0
-1.8977454 2.0913644 -1 0
8.7280731 5 -0.088450909 0
-9.0507212 -0.24383874 1 0
10 -0.0063775335 0.48532921 0
-9.3513336 -5 -0.59473127 0
8.9379988 -1.8396896 1 0
6.737988 -5 0.34158015 0
-2.33196 -4.7173858 1 0
10 3.297446 -0.64165908 0
-9.7503023 -1.9484588 1 0
0.26869011 5 -0.51601481 0
-10 -4.018611 -0.5075959 0
-5.8921971 -3.8145714 -1 0
10 0.083959289 -0.43939206 0
4.4334545 -5 -0.91108501 0
10 3.4843104 -0.82350951 0
-10 0.18632294 -0.56977624 0
10 2.5002227 -0.40207544 0
-8.338028 1.2940372 -1 0
10 -0.26452792 -0.29040346 0
4.7027082 5 -0.37016496 0
-7.6251974 -5 -0.38090861 0
-1.1151907 1.1532112 -1 0
8.6063433 -0.65256667 1 0
3.7346239 5 0.10093439 0
10 2.610383 0.90828228 0
3.7824702 -5 0.78134912 0
3.3408084 -5 0.72045153 0
-5.9675031 5 -0.64925176 0
-3.7505105 2.5961037 1 0
-10 4.159914 -0.20079875 0
-10 -1.7775859 -0.96440858 0
-2.7448902 5 -0.54494345 0
-10 -0.068294726 0.39288935 0
-5.3041878 4.8767343 1 0
-10 -1.7051684 0.22852756 0
-3.180541 -3.5857515 -1 0
10 2.7058878 0.67908913 0
10 4.3970189 0.050069131 0
10 -2.7970228 0.30832684 0
7.7111239 0.51412374 -1 0
10 1.9800611 -0.47851446 0
0.077812888 -5 -0.5499419 0
0.080694176 -4.5670753 -1 0
-10 3.6117408 0.11240111 0
-1.1957263 5 0.84904969 0
1.9637469 5 0.1395472 0
-4.9498448 5 -0.81280601 0
-4.8358884 0.080593988 1 0
-4.6584291 -1.3564001 -1 0
-10 2.1177588 0.25946736 0
-0.60833251 -5 -0.67370671 0
-10 4.3209553 -0.47035202 0
-3.8394055 4.9758501 -1 0
-3.7524176 0.35530415 -1 0
10 -2.3671775 0.036988709 0
-8.8507967 -3.0551689 1 0
-10 -1.1140963 -0.027735813 0
-5.0271397 -5 -0.76234883 0
-8.8867102 -5 0.81727332 0
3.9711545 -0.19065225 -1 0
-10 1.474039 -0.19803171 0
-2.424969 5 0.22454843 0
3.5155959 3.1886473 1 0
-1.2254217 -4.1830869 -1 0
-0.59263265 5 -0.51459247 0
7.0809345 5 0.90092891 0
7.1738863 5 0.28167835 0
-10 3.1403675 -0.3513498 0
8.8106613 1.9412676 -1 0
-2.2123878 5 0.12766856 0
-8.1960487 1.9656451 1 0
3.4437244 5 -0.18437901 0
10 -3.1303904 -0.91692334 0
8.2830153 -0.50993299 -1 0
-10 -1.6433868 -0.46608692 0
-10 -4.7963133 0.84537935 0
1.099754 5 0.74853021 0
10 -0.64829487 -0.69489878 0
1.4739079 -0.94181943 -1 0
-9.4205675 1.6418992 -1 0
10 4.0899158 -0.86851114 0
-10 4.8468781 0.70535976 0
3.0559535 3.0522273 -1 0
10 -0.35325411 0.07065405 0
-8.077549 5 0.65746814 0
0.23045732 1.4462427 -1 0
7.8869376 -5 0.42341483 0
2.5735393 -5 -0.45250815 0
-3.5715823 3.3283925 1 0
0.25455654 -0.88328278 -1 0
-10 1.0079025 0.90171015 0
-6.9240608 0.91925442 1 0
6.4936395 -2.4213121 -1 0
-4.988616 -5 0.26945704 0
10 1.5211844 -0.47199595 0
-0.14039177 -5 0.0093766255 0
-8.005146 -4.7824006 -1 0
-10 -3.5963988 0.74712455 0
-10 3.2483923 0.9200561 0
1.2951014 5 0.27486363 0
-0.90462619 5 0.04186805 0
-2.5970771 5 0.5181706 0
10 2.8154809 -0.3723093 0
-3.1419668 5 0.34617618 0
-10 -2.2337248 -0.48333955 0
-9.9151831 1.6999055 1 0
4.0500026 5 -0.28593418 0
-10 3.5319772 -0.33593112 0
10 -1.3801223 0.43504682 0
3.9454665 5 -0.89105082 0
10 0.18765642 -0.24780329 0
-3.5630679 1.9569269 1 0
1.477351 5 -0.91769785 0
-10 4.1728044 0.93109143 0
-1.9874017 5 -0.094733879 0
10 -2.748601 -0.32623717 0
-10 -2.1871178 0.24609625 0
-10 -0.60081661 -0.1849876 0
0.66619456 2.5869536 1 0
9.7510109 -1.4536779 1 0
5.6796761 -5 0.75948709 0
-10 3.1636178 -0.38311526 0
1.1048086 -3.5485106 -1 0
-5.8751607 -5 -0.3925955 0
4.1236968 -5 -0.71054071 0
10 -4.0962653 -0.30125928 0
-10 3.4519258 -0.45475337 0
-10 -2.3623352 0.070491955 0
4.8310995 1.90276 1 0
-9.2739067 -5 -0.27521902 0
-10 -4.8249969 -0.85252947 0
9.3467722 5 -0.64383423 0
10 -4.2166958 -0.33294055 0
10 3.6338582 -0.21705356 0
-10 -1.5422463 -0.038363006 0
-8.6396627 5 0.26723984 0
5.9015608 -5 -0.6946854 0
-10 0.65710598 -0.57711053 0
10 2.6927221 -0.42704129 0
2.1343479 -5 0.099279501 0
8.8272114 -3.7415628 1 0
10 2.0846016 -0.23583515 0
9.1887493 2.4054596 1 0
10 -2.9617326 -0.88383961 0
-10 2.8369098 -0.51033562 0
-2.7499778 -0.9449839 1 0
-10 -4.4263248 -0.27691123 0
-0.69834524 5 -0.22313811 0
-10 -3.4988101 0.39717212 0
-4.9944243 -5 -0.32657531 0
-7.8210163 -1.5258371 -1 0
-1.5040262 -5 -0.13350175 0
-8.4679451 1.7175082 1 0
10 4.9171338 0.063062817 0
10 4.6549859 0.29572961 0
2.4197233 0.25244299 -1 0
-10 0.30911419 0.48061469 0
3.5900888 -3.9472411 -1 0
-8.1356592 -5 0.49199355 0
8.7838821 -5 0.045817234 0
-10 4.7172747 -0.59580177 0
-2.2699015 5 -0.14538826 0
-6.9669724 -5 -0.21853866 0
9.2124805 5 0.75156575 0
-9.2394476 5 0.10818116 0
-5.3168669 -1.5517539 1 0
-0.52545017 0.74461269 -1 0
-2.5664115 -5 0.74055266 0
-2.2379329 -0.47619668 1 0
1.3691255 0.31309989 1 0
2.5599723 2.4346678 -1 0
-0.10653713 -5 -0.51145846 0
-1.9800967 -3.1982348 1 0
-0.89257556 -4.7376099 -1 0
8.5427904 5 -0.27571574 0
-2.6669378 -5 -0.011967794 0
-10 -4.9340529 0.072998025 0
2.0818541 -2.993794 1 0
10 2.9101996 -0.095203571 0
-8.7703924 4.5358334 1 0
-10 -4.5813599 -0.99694777 0
1.1908245 5 0.63922656 0
-2.819813 -5 -0.91224259 0
7.8872151 -3.9432492 -1 0
-6.5712743 3.0552042 1 0
-5.8699641 5 -0.18122981 0
7.5277319 -2.5044816 1 0
5.4238091 -3.351505 -1 0
5.8441062 2.7256846 -1 0
-8.7655926 5 0.11365205 0
10 4.1279821 0.9755488 0
10 2.4165709 -0.8020407 0
1.6202626 -1.8331898 -1 0
10 1.6424288 0.49585748 0
-4.4685965 -5 0.2016122 0
10 4.8422275 -0.24984007 0
-10 2.5138943 -0.25979316 0
-10 0.5051685 -0.73473966 0
10 -0.50682753 0.71351683 0
-2.7535748 0.46663895 -1 0
4.1077061 5 -0.49948448 0
10 -3.3083239 -0.62161833 0
-10 -3.653372 -0.95089835 0
1.6550442 5 0.012656268 0
-9.4603224 0.17424361 1 0
-10 -4.0168748 0.84556264 0
10 1.3292913 -0.751284 0
10 -1.5285701 -0.57414389 0
9.7478619 -5 -0.50214756 0
0.95624858 -0.60615736 -1 0
-10 3.4765375 -0.1680903 0
1.294404 -5 -0.24109538 0
10 1.5761123 0.11918662 0
-10 -3.0339291 -0.93218762 0
6.4055867 2.6049011 -1 0
10 -4.1987038 0.2298604 0
5.6277008 -4.2831135 -1 0
-2.9596262 5 -0.46784782 0
-10 -4.8551483 0.60613877 0
-4.29808 5 0.82777739 0
10 1.6651781 0.48707151 0
-0.35627538 -3.9562514 1 0
-4.8827133 2.8961644 1 0
-10 -0.26822311 -0.099241607 0
10 2.0771437 0.63848102 0
-4.7131205 -5 0.10805802 0
-1.3677551 -0.92104882 1 0
-6.3253136 -5 0.1361216 0
-10 -2.0628724 0.21222177 0
8.3951645 -5 0.9696247 0
-10 3.3175445 -0.93064988 0
2.3197057 -3.496388 -1 0
-6.9747581 -2.3233428 1 0
-3.5220904 2.3974671 -1 0
-10 -2.2619123 0.0014596343 0
-4.9098892 5 0.045982897 0
10 3.0537989 -0.045444209 0
-2.496979 5 0.11110288 0
-9.1447802 -1.8217901 1 0
-5.7861228 5 0.698672 0
-3.5811112 -5 -0.87147689 0
10 -2.0006342 -0.11893268 0
10 3.4589367 -0.33594361 0
10 1.1160785 -0.14767067 0
-5.7696657 0.04313188 1 0
-1.8015472 -1.8757614 -1 0
-10 -0.70531809 0.06433437 0
-10 -0.12268993 -0.19635978 0
2.8505929 2.2445076 -1 0
5.9229064 0.24591887 1 0
-8.7563381 3.9257679 -1 0
-10 -0.41816664 -0.2228559 0
-10 2.8144438 0.21243741 0
6.9836984 -0.11992093 1 0
8.5770359 5 0.25515193 0
-10 -1.3517828 -0.65774208 0
9.250289 -2.9025912 -1 0
9.396347 -5 -0.99901438 0
-8.2778196 -5 -0.083065815 0
-7.3453774 -0.45070496 -1 0
-8.4066381 -5 0.82738459 0
0.78853321 5 0.8890574 0
-3.6296051 5 0.8168608 0
-2.4429109 -5 0.029191932 0
5.7809358 -5 0.91327089 0
-2.9573765 -0.83245724 -1 0
3.3888695 1.8476945 -1 0
-3.4452336 2.7727716 -1 0
-9.8434477 -5 -0.40779263 0
-9.7708817 -5 0.26253858 0
-6.5971737 -5 0.14417796 0
3.1070902 4.826488 1 0
-0.74400538 -5 0.66726893 0
-10 4.6695337 0.83424896 0
-0.12283555 -1.9448402 1 0
-1.6943355 -5 0.91379136 0
-10 3.3943875 -0.98167706 0
-8.8244352 4.9601426 -1 0
10 -1.1279181 0.045570597 0
-10 -2.596302 -0.052283216 0
-3.1720009 -5 0.65903008 0
-0.79566061 1.979324 -1 0
10 -1.6587647 0.62379676 0
-10 4.4734712 -0.60976464 0
5.0865011 1.2632103 1 0
-9.4336653 0.15283169 1 0
10 0.62360626 0.24093346 0
-10 -2.9747663 0.23965243 0
-4.5945687 -2.5115945 -1 0
9.6247959 5 0.33087468 0
9.6753311 -4.2781806 -1 0
-10 0.32440627 0.4657318 0
-0.23366237 5 -0.054854829 0
3.4951255 2.7869794 -1 0
-10 4.6444969 -0.07813818 0
10 3.3638613 -0.57552856 0
-10 -4.3788486 0.47397488 0
10 -1.901509 0.77352363 0
-1.4051638 -3.1256313 -1 0
-5.0580049 5 -0.78659987 0
4.5329337 -5 0.18370776 0
-2.0939236 5 -0.53887564 0
10 -3.5307462 -0.60307997 0
-10 -4.8710742 -0.74397767 0
9.3490877 5 0.53539115 0
3.3818278 -5 -0.040032994 0
10 -1.4166882 0.135124 0
-4.6400471 -5 0.82785326 0
6.8337164 -4.5730476 -1 0
-10 -1.6487552 0.51503879 0
-10 0.47248968 0.16626659 0
-1.9314923 3.6399188 1 0
-9.9443884 -1.0535591 1 0
5.9708395 -5 0.79773647 0
-10 3.9957449 -0.84796214 0
-8.3027096 5 0.53688443 0
-6.3661971 -5 0.9032349 0
-10 2.0041862 -0.18526542 0
-10 1.1451596 -0.091777697 0
6.7756305 -3.8464098 1 0
8.6023188 -5 0.37532097 0
-5.1204214 0.39719605 1 0
-10 0.050170146 0.88296336 0
5.7366247 -4.6298242 -1 0
10 3.0890234 0.97329587 0
9.4491177 -5 0.43224609 0
-1.6038436 -5 -0.30557266 0
2.0728743 5 -0.64696676 0
0.92446399 -5 -0.4552041 0
-9.2757397 -5 0.8500064 0
-0.7090255 0.77742332 -1 0
-10 -0.25574088 -0.80237812 0
9.3312607 0.64907444 1 0
-10 4.18188 -0.69448388 0
1.8590244 -5 0.073307388 0
5.7087522 -5 0.84215379 0
10 0.86603945 -0.60389769 0
0.41523817 -3.9925959 -1 0
5.8405967 5 0.40342093 0
-10 2.1123981 -0.32457533 0
9.1054611 -5 -0.06563516 0
3.0669191 5 -0.081605889 0
-10 3.1743362 0.31964952 0
8.1786327 -5 0.028124569 0
10 -1.9006238 -0.52525395 0
-0.19674858 -5 0.06524314 0
-10 2.3576741 0.4796862 0
-10 3.0535431 -0.70356005 0
-10 -3.7187393 -0.062050227 0
8.3358297 -3.9330931 1 0
-10 3.2819448 -0.95537657 0
-10 -4.3248491 -0.13757546 0
2.307452 5 -0.26873556 0
-5.1127357 5 -0.92171091 0
10 1.6333686 0.40732926 0
-2.5823474 3.6218965 1 0
-10 -4.546144 -0.7081269 0
-4.1052508 5 -0.4601692 0
0.84051132 1.4099855 -1 0
7.3531199 5 0.39058894 0
2.5793598 -3.6426604 1 0
2.4384689 5 -0.27864709 0
10 4.6410694 -0.86589015 0
-10 -2.5003686 0.15136863 0
-2.5292335 0.9706257 -1 0
1.1213189 5 -0.21947707 0
-7.3326864 0.18204404 1 0
10 -3.0418425 0.63506103 0
10 4.5005884 0.94836926 0
4.1917357 3.4454458 1 0
10 0.27945983 0.20201081 0
-8.8460007 1.0020922 -1 0
-3.2146049 -5 0.091973864 0
-4.112864 5 -0.53482515 0
10 -2.7406361 0.591883 0
0.51073748 1.6668222 1 0
-5.8428555 1.2706896 -1 0
6.8283 -5 -0.73011392 0
10 -4.7877007 0.37563002 0
2.6139185 2.704627 1 0
2.3439803 -5 0.15614142 0
10 -0.043951623 0.71017802 0
10 -1.9271461 0.3569119 0
2.4535937 -5 -0.27024052 0
5.2915463 -1.2845298 -1 0
-10 3.56163 -0.0042001973 0
10 1.1184738 -0.79433239 0
9.2640762 5 -0.82576168 0
-10 -1.1784575 -0.74667811 0
-4.062531 -4.3023534 -1 0
4.8433957 5 0.54295117 0
-4.6139627 1.1881227 -1 0
-6.386158 -5 0.43471906 0
-10 3.4455793 -0.51208037 0
6.8574185 -0.75279438 1 0
10 4.9172707 0.36588734 0
10 -0.53427768 0.044758826 0
6.7688498 5 -0.3790732 0
4.655592 5 0.13439649 0
4.7157683 5 0.63927817 0
9.7663298 5 0.20188344 0
-10 1.6123029 0.20267175 0
-10 2.1777375 0.62312633 0
1.0250083 -0.90938538 1 0
-4.6949406 -5 -0.28191355 0
7.1290994 -3.0663679 1 0
-8.8827333 -5 -0.0058461935 0
8.6230154 5 0.49008071 0
-5.1476412 5 0.97850507 0
-3.6613145 -1.2876449 -1 0
5.1365147 4.3977838 -1 0
-0.83479977 3.5511198 1 0
-3.9295936 -0.71193868 -1 0
9.532938 -5 -0.36969575 0
-10 -0.035787169 0.96584952 0
2.5458217 1.3616025 -1 0
10 -1.2664154 0.69261944 0
10 -4.0513635 0.45789164 0
4.114223 -3.2892706 1 0
-10 4.9700603 -0.47738913 0
-2.6137762 4.0801973 1 0
10 3.2634876 0.83214283 0
-3.2264173 -5 -0.838135 0
10 1.6263586 0.14048854 0
-10 4.5914884 0.34241581 0
-10 1.0461804 -0.35766074 0
10 -4.6743026 0.46844968 0
4.5794125 5 0.97114652 0
-7.5596089 -5 0.11893121 0
9.1431017 -5 -0.4651354 0
-9.9344654 5 -0.38848317 0
-8.0050888 4.848237 -1 0
8.0170221 -3.4730413 1 0
1.3428229 -5 0.9019962 0
3.9163196 2.8723783 -1 0
-10 -2.8329194 0.51382935 0
-5.6345634 -5 -0.97169191 0
-7.0987196 -3.222419 1 0
6.8230577 -5 0.53111678 0
3.6140535 5 0.80651641 0
-10 1.6725847 -0.87472725 0
-10 -3.0606277 0.14057086 0
10 -1.6836346 -0.75018179 0
7.5600219 -3.9742715 1 0
6.5303235 -5 0.082847841 0
7.7691245 -5 0.24127014 0
-9.7983751 5 -0.96979308 0
5.1114702 -2.6289599 1 0
8.9765453 5 0.98088038 0
6.2848959 5 0.44720179 0
10 2.6875646 0.17266601 0
-2.4893765 -4.0063534 -1 0
1.9122819 -4.1701603 1 0
4.6853075 5 -0.39732915 0
10 1.1853204 0.75895864 0
10 1.8260583 -0.042618979 0
-8.4092369 5 0.84372771 0
-0.11936393 2.5348091 1 0
1.8506856 -5 -0.2983208 0
3.1594908 -5 -0.51515186 0
0.37555227 1.666361 -1 0
-0.78605205 -5 -0.31040049 0
2.0016682 -2.6659701 1 0
4.4455891 5 0.60163748 0
-9.9559126 4.431633 1 0
-3.3715594 -5 -0.44072884 0
-6.5774446 4.8820624 1 0
-10 0.60017461 -0.48176494 0
1.4361171 -1.8868556 -1 0
-10 0.11923032 -0.0019725484 0
-10 3.7400572 -0.2465581 0
-10 0.61150807 -0.15325181 0
9.3663397 3.7221906 -1 0
6.6501141 5 0.22229452 0
-10 -0.28624687 0.073879808 0
3.8710387 -5 0.55296522 0
-10 -2.8378108 -0.69118309 0
2.5099537 2.2034128 1 0
5.0484648 -5 -0.91150874 0
-10 -2.3460052 -0.95236027 0
3.1804144 -0.10065165 1 0
-1.1697502 -5 0.73764837 0
1.0276153 -5 -0.78552645 0
-10 -2.1061182 -0.10869639 0
3.0453272 5 -0.84752792 0
-1.8769112 2.485491 1 0
10 1.1410012 0.54812962 0
1.330972 5 -0.57193363 0
-3.3919261 3.4424951 -1 0
10 -2.8023021 -0.59791344 0
3.001967 -3.7128408 -1 0
9.1902122 3.7451956 1 0
-0.8405425 -5 -0.96589822 0
-10 2.6521447 -0.60767448 0
8.8837605 -5 0.21317776 0
1.0661707 -5 -0.70850247 0
-7.3139133 -5 0.38359651 0
3.4590132 -5 0.66378593 0
-4.0175285 -2.7723203 -1 0
5.9775271 -3.7011113 1 0
-6.5625415 4.3482375 1 0
10 -4.6321626 0.90454108 0
10 -3.0559003 -0.31886497 0
10 4.3283491 0.28933007 0
2.8135059 -5 -0.85981947 0
-5.6839294 -2.4381199 1 0
2.2259903 -1.1770153 -1 0
9.1801014 -5 0.40013421 0
-4.6171327 -1.4852115 1 0
-2.9083924 -2.2751305 -1 0
10 1.2553273 0.38837647 0
1.4991733 -2.0740449 -1 0
-10 -3.2937913 -0.3072547 0
-6.1014614 2.0995822 -1 0
-10 1.7422273 -0.96435899 0
10 2.1570141 0.80871773 0
-2.3415852 -5 0.83941084 0
8.3319016 -1.2950743 -1 0
10 -3.9727008 0.27442148 0
-6.8341742 -5 0.59060514 0
2.5014668 5 -0.815808 0
6.8012476 5 0.77659082 0
-8.1155977 -5 -0.34595007 0
9.7939339 5 -0.14205775 0
10 0.63574874 -0.47153613 0
6.5609255 3.3942206 1 0
10 -1.7338578 0.19723777 0
4.2276478 4.6997476 -1 0
6.0436673 -5 0.78227687 0
-10 -1.2581801 -0.24559858 0
-10 -3.6066887 -0.42763969 0
10 4.1853309 -0.13855693 0
10 2.9944928 -0.37369278 0
-10 0.21699317 0.10718632 0
10 2.5749836 -0.94015622 0
-7.208468 -5 0.99405444 0
-10 -4.7073512 -0.62576133 0
10 0.046415426 0.58615661 0
-7.8395109 -5 0.65767914 0
7.6596789 5 -0.49041405 0
2.4946759 3.7031772 1 0
-10 1.1346418 -0.25558293 0
0.80623692 0.94224954 1 0
-9.4253225 5 -0.31631693 0
-1.2543328 2.4713535 -1 0
-9.0998268 5 -0.010136543 0
10 2.2535894 0.80836213 0
-8.0014429 5 0.58504516 0
-4.2141285 -5 0.3669087 0
8.6495829 -5 -0.89717019 0
8.7932587 0.0059764571 -1 0
10 -3.1720154 0.42604142 0
10 1.3696182 0.22433445 0
-5.3231516 -5 -0.73463053 0
7.7956228 0.78732628 -1 0
-10 -1.0641949 0.60808808 0
-10 1.169776 0.064481355 0
-10 -2.8366714 0.18632077 0
5.8764863 5 -0.47118989 0
-5.6646113 -3.4534068 -1 0
3.0690606 -5 0.930601 0
-10 -1.0149326 0.067439079 0
-6.2481332 2.6883671 1 0
10 -0.50908011 0.741153 0
10 -1.3378327 -0.9708851 0
0.28517941 1.43657 -1 0
7.4801469 -4.7072415 -1 0
3.2776985 5 -0.23113719 0
9.9010487 -4.4933639 -1 0
-7.3588676 5 -0.5978567 0
-10 -1.3127886 0.45812184 0
10 -0.84417033 0.04126307 0
9.7725849 1.0141839 1 0
10 -1.566731 -0.32584119 0
2.8392093 5 0.20498031 0
-10 1.6012943 -0.10740034 0
-2.4340115 -5 -0.48333535 0
-10 -0.36640674 -0.49103543 0
1.6407712 -4.4094629 -1 0
10 4.1555591 -0.56443322 0
-9.7326164 -5 -0.62996036 0
-10 0.75168151 -0.89850175 0
-10 0.55309302 0.85000515 0
-0.52921033 -1.8918434 1 0
-10 1.101432 -0.58200186 0
-10 -2.7530863 0.34987503 0
10 -1.4798824 -0.94902921 0
-3.1245399 0.92330444 1 0
3.3962145 5 0.53658569 0
-7.6664333 -5 -0.48242721 0
-6.9581194 -5 0.032221898 0
10 -0.34948412 0.31516442 0
-8.5088587 -5 -0.82460189 0
4.3380761 -2.6842339 -1 0
10 -0.80430019 -0.82174504 0
0.44894117 -0.99155432 -1 0
-10 -3.1329894 0.88457525 0
-10 -0.37027574 -0.98828644 0
-4.4273787 -1.7051821 1 0
8.2434034 -1.5038068 1 0
-10 -1.8558308 -0.026051996 0
-9.6016054 5 0.086214565 0
-10 -0.97453249 -0.97648269 0
10 4.2577868 0.07816609 0
5.8038197 2.3644414 1 0
10 2.0166912 -0.77176887 0
-7.1205654 -5 0.55012661 0
-4.9916658 -0.56679428 1 0
-8.2359028 2.2707026 1 0
10 -4.7870193 -0.57248431 0
7.7598495 -5 0.077778317 0
8.6469316 -5 -0.26036578 0
-8.027627 5 -0.48680201 0
9.4466248 -3.7069759 -1 0
-6.8913379 5 -0.087039284 0
6.9418168 -2.6615233 -1 0
-7.5722647 -2.5403326 -1 0
10 -2.7459717 -0.82232529 0
2.5801485 5 -0.5874182 0
-8.7765512 -3.7861884 -1 0
-10 1.67558 -0.4881278 0
-3.0953948 5 0.93716717 0
10 0.87734544 -0.98843104 0
10 0.16332123 0.7163536 0
10 0.2263127 0.12396621 0
3.7829614 0.35241094 1 0
0.78742963 -5 0.0068526217 0
-10 -3.8974047 -0.24160625 0
-10 -2.668294 0.12028277 0
10 -0.97927791 -0.058142729 0
8.0001965 4.1374183 -1 0
-10 2.3963535 -0.079129644 0
-0.57590622 5 0.74064654 0
-6.0132866 -0.30592364 1 0
8.275322 -0.25582537 1 0
-1.5742326 -4.5563374 1 0
-5.0312562 3.6991234 -1 0
10 -2.3488655 0.68322849 0
4.6575766 -0.27218443 1 0
10 -4.8618245 0.28958818 0
-10 2.7038007 0.8056609 0
10 -4.0425806 -0.7907756 0
-0.35048103 -5 -0.40859133 0
-10 3.5634389 0.99137634 0
10 -3.8919377 0.38181862 0
10 2.6017654 -0.081875138 0
-10 -1.923239 -0.85190904 0
3.6893997 5 0.073638976 0
2.3739948 3.8280706 1 0
-7.4665356 3.1637731 1 0
-9.1535702 -2.5759962 1 0
5.042964 -2.3322253 1 0
3.2480278 2.7654376 1 0
-10 1.1363442 0.60829729 0
-5.2490535 -0.65670937 1 0
-8.0820866 -4.6880016 1 0
-10 -0.81200582 0.78268093 0
0.29915833 5 -0.49212524 0
2.6844282 5 0.16868246 0
-10 4.886899 0.16197112 0
-3.2191799 5 -0.39584011 0
10 -4.712882 -0.3086597 0
6.0591259 -2.7820199 -1 0
10 2.5299206 0.16669901 0
10 2.2356462 -0.15647714 0
-6.927793 0.46743897 1 0
-10 -3.2648664 0.57344782 0
10 2.6526916 -0.69783568 0
-9.7041302 -5 0.53820157 0
-10 3.4850488 -0.52725011 0
-9.7109566 4.0420589 -1 0
6.4214921 4.4798198 1 0
-10 4.2370601 -0.37587267 0
10 4.2926517 -0.66822332 0
-8.129364 -3.0169683 -1 0
0.19054843 5 0.61363769 0
8.6343317 5 -0.40607879 0
-10 -0.51996076 0.8843354 0
-9.7527628 -5 -0.64818823 0
10 4.7829509 -0.0047595124 0
-10 -1.5763961 0.81477779 0
-10 -0.80358207 0.30462897 0
10 3.2726822 -0.087480776 0
3.7183588 -5 0.087089084 0
-3.7657342 -3.4536235 -1 0
-2.8233852 5 -0.89055663 0
8.5355043 -5 -0.90729874 0
-10 -4.1484928 0.74677342 0
6.5206752 -5 -0.10615201 0
-1.5763737 3.9789138 -1 0
-10 3.8893645 -0.72057104 0
-10 0.34223229 0.89058399 0
10 3.7672534 -0.29097831 0
7.3296471 -5 0.87301481 0
-5.0824351 -3.4808664 -1 0
10 -1.5125374 -0.44956148 0
-10 -1.1010321 0.76722056 0
5.3011017 -3.6649141 -1 0
-0.69090265 -4.4551926 1 0
-2.3113492 5 0.57363987 0
9.9387007 3.6958079 -1 0
-0.11465096 1.3607715 -1 0
-3.7343497 5 0.54909396 0
9.4235163 5 0.7539131 0
-1.6147767 -4.03617 1 0
-1.0090557 5 0.63221401 0
1.1232593 -5 -0.19652414 0
-0.38017416 -5 -0.19720347 0
10 -0.15893652 0.039455995 0
7.5515409 -4.6424818 1 0
-8.4025478 -0.19864503 -1 0
-6.1075592 0.27100131 -1 0
9.209466 -2.8665624 1 0
-6.3147078 -5 -0.42228889 0
-8.5096521 4.5225129 -1 0
-5.6976061 0.81506431 1 0
-5.034677 5 0.37418601 0
10 2.344831 0.49046606 0
2.6044443 -1.2618046 1 0
3.860939 1.2580903 1 0
10 -3.6745436 0.9615835 0
-6.4646931 -5 0.28559256 0
3.7279115 4.4870744 1 0
-1.1754825 2.2208285 -1 0
-4.9634681 -5 -0.31471008 0
10 -0.75883335 0.18990046 0
-7.2522273 -4.3234096 -1 0
-5.0768147 -1.4112635 -1 0
-7.7791901 4.1914225 1 0
-5.4781489 5 -0.36175883 0
1.8114231 -5 -0.46203205 0
-10 -4.9564247 0.080995001 0
-8.5030766 5 0.16287145 0
10 -0.60070068 -0.96512407 0
-8.7767305 5 -0.17198394 0
5.7778473 -1.8645461 -1 0
-7.0214558 -5 0.4229885 0
-10 -4.0425901 0.68724608 0
-10 2.3373992 0.090883888 0
-1.2604314 5 -0.70936036 0
7.1567736 5 -0.12032618 0
9.302927 -5 -0.72451591 0
5.6158996 -5 -0.19297226 0
10 -4.4099517 -0.27806035 0
2.8737593 -4.3815598 -1 0
-6.6593394 -5 0.32566968 0
-4.9550638 3.7532027 -1 0
-10 4.6231799 0.69298482 0
6.7575192 -5 0.1059896 0
-10 -1.2532352 0.33403391 0
-4.4908533 2.6720753 -1 0
10 -4.2932715 -0.70923549 0
-10 -1.8167119 0.83234054 0
2.6403787 3.3332624 -1 0
1.6131233 1.5482714 -1 0
-10 -3.4622548 0.77939427 0
6.919457 5 0.93740195 0
-10 2.2801063 0.68202162 0
3.9264834 5 0.1064434 0
10 -0.38799641 0.88282841 0
10 -2.5603659 -0.55589724 0
-1.6692891 5 0.68338287 0
-1.5245066 5 0.62562132 0
-10 -2.2681754 -0.31832805 0
8.1704559 -1.9200064 1 0
-10 3.9646258 0.18319665 0
10 -3.837558 -0.055442665 0
10 -1.6885238 0.6390605 0
6.2325659 5 -0.74209857 0
0.20968628 -5 0.43388712 0
-3.5963151 5 -0.28125045 0
10 -4.209805 -0.59921783 0
-1.2156724 -5 0.80271846 0
0.11980728 5 0.015256063 0
-1.7802951 -5 0.49266678 0
10 -0.35675871 0.47000143 0
-0.63465905 5 0.30085284 0
1.2306142 -3.6083257 1 0
10 0.0524639 0.12538333 0
10 -3.1150038 0.52582532 0
7.5513296 5 0.61633801 0
2.7857206 1.1868269 -1 0
-10 3.6961162 0.81091315 0
0.23056436 -5 0.3851577 0
6.2946815 -5 0.49696743 0
-3.1971107 3.937371 1 0
10 3.9623191 -0.36012027 0
10 -0.6906364 -0.79184496 0
10 1.8578879 0.5361886 0
10 -4.35641 -0.31515446 0
-0.13883981 1.732453 -1 0
3.0511534 -0.3957023 -1 0
7.3787251 1.2740749 -1 0
-9.2034111 2.7741072 -1 0
-2.9376318 -5 0.31308532 0
4.5778642 5 0.56460333 0
-1.8769573 -5 0.80259329 0
2.4560719 3.0977585 -1 0
-7.893436 -5 0.40841925 0
-3.6815455 5 0.23184954 0
-7.8758588 0.1863025 1 0
-4.4280014 -5 -0.064936593 0
-3.8010478 1.6006646 1 0
-10 -3.5792527 0.20710661 0
6.4507613 2.4915121 -1 0
-10 3.765873 -0.17384323 0
8.5527973 1.231769 1 0
10 0.79054523 -0.95720261 0
-10 2.0736711 0.42858112 0
-6.971499 -5 -0.10511342 0
-8.5867472 0.58444828 -1 0
3.9729111 5 -0.75966579 0
5.9885092 -5 0.95918715 0
8.9050827 0.82647538 -1 0
6.4814711 5 -0.29392433 0
-1.5909096 -5 -0.9465313 0
0.48963708 -1.7553124 -1 0
1.1558014 -5 -0.61990643 0
10 -1.551614 -0.24814959 0
-8.0190268 -2.1223948 1 0
0.79296279 -4.4273882 -1 0
-10 -4.2529898 -0.057488527 0
10 -0.25631398 -0.32120934 0
-7.3876939 0.079106458 -1 0
-8.9763002 2.4450729 -1 0
3.5763121 -4.919764 1 0
3.0311248 4.3699446 1 0
-10 -3.1325264 0.80293345 0
10 2.8522897 0.16859992 0
0.26315409 5 -0.32810605 0
-1.0701423 0.48632947 -1 0
-10 -3.57828 0.44217592 0
3.7703264 0.36082765 1 0
10 -0.8586086 0.26113376 0
3.2000809 -5 0.094469927 0
6.5478745 2.386256 1 0
-2.9635024 5 0.27319172 0
-3.6851172 5 0.16350733 0
5.8406 5 -0.99586523 0
2.1995151 5 -0.674339 0
6.2838864 -5 -0.21725123 0
10 3.9238439 -0.39566821 0
-2.2666032 5 0.87560642 0
-5.3487716 -0.61164302 -1 0
-1.9136078 -5 0.56484967 0
10 -4.5826974 -0.069622643 0
-10 -2.7209675 0.73125398 0
-10 -1.5026606 0.51638806 0
4.9362249 5 -0.32643363 0
8.7980394 -5 -0.31721008 0
10 0.2785666 0.15641256 0
-8.25455 3.2434039 1 0
9.905097 5 -0.64377171 0
2.2431769 5 -0.24496795 0
-10 4.7236228 -0.78169787 0
-10 1.3925426 -0.42292273 0
2.4089234 -0.98229414 1 0
1.0114992 -5 0.31405026 0
-0.81090266 5 -0.26267546 0
-7.9217916 5 0.59149748 0
-10 -3.3649292 -0.98140389 0
6.2709632 -5 0.32714531 0
1.533975 5 -0.84407949 0
10 1.1347156 0.81025082 0
-3.1233017 0.27551743 1 0
-5.0365067 2.1518598 -1 0
-10 -2.7491438 0.44036222 0
10 0.31793797 -0.98483735 0
-8.1920938 -1.0992097 -1 0
10 1.685752 0.54972607 0
7.7190518 2.9544675 -1 0
-9.3746099 5 0.71511847 0
3.8060396 5 -0.529024 0
9.1709862 0.40175405 -1 0
10 -1.9352598 -0.05827922 0
8.6165323 -3.2663045 -1 0
-3.8403919 -2.5148206 -1 0
10 1.1446315 0.50011671 0
-4.0316491 3.7298071 -1 0
10 2.2663989 -0.34945962 0
-6.9876394 -0.25282592 1 0
-4.6933961 5 -0.21891168 0
-5.543828 -4.9483066 1 0
-4.3045301 -5 -0.86455345 0
9.4337578 -5 -0.77218157 0
-10 2.9193611 -0.25626242 0
7.3493824 4.1328001 1 0
6.7581615 3.2715123 -1 0
3.9256058 -3.5869708 1 0
10 3.1385441 -0.35128286 0
-8.3811464 -0.55283403 1 0
-5.0029025 4.6665311 -1 0
-0.94147152 2.6490235 -1 0
-8.0524139 0.40090087 -1 0
4.735332 5 -0.48253867 0
1.2230828 -1.2171661 -1 0
4.6506228 5 0.79504156 0
1.6696317 5 -0.024963027 0
1.1507441 -5 -0.097863361 0
-4.4529281 -2.9118295 -1 0
-6.8008094 -1.9997109 1 0
2.6737301 5 -0.069175646 0
-8.8956976 -4.3573561 -1 0
-4.391675 1.9000169 1 0
3.8630738 -5 0.65111744 0
-0.38278556 -5 0.23811065 0
-10 2.5577805 -0.40827751 0
2.3415148 3.2028077 1 0
10 -3.4346311 -0.32738614 0
-10 -0.97839648 -0.70115703 0
-0.82281387 -5 0.70701438 0
-0.87957734 -5 -0.01861565 0
4.6071544 2.0110295 -1 0
10 -0.91586691 0.055419791 0
10 -1.1356462 0.92887592 0
-0.26815739 -5 -0.48045549 0
-0.81335622 -5 -0.29570085 0
-6.9900107 0.93976086 1 0
10 -0.25335678 0.41337651 0
10 -1.9314567 0.1632068 0
9.6122341 -1.7144935 1 0
3.8647542 -5 0.89647245 0
-10 2.4094911 -0.43314672 0
4.17102 5 0.49790564 0
9.887167 -1.5027713 1 0
-10 1.5603327 0.12520096 0
-7.9524264 -3.9126253 1 0
10 1.0123132 0.087814607 0
-0.91291976 -3.0282652 1 0
-1.4488896 -5 0.23486391 0
3.8768904 -4.0294628 1 0
10 -0.78931296 -0.015188622 0
-10 0.71850806 0.9789384 0
-4.9586067 -2.2198417 -1 0
10 3.1425946 -0.30970213 0
10 0.71633232 -0.63604367 0
2.9575677 -5 0.37019643 0
-10 0.37556642 0.1958596 0
-9.3419104 -5 -0.20402499 0
-5.316915 5 -0.54133564 0
3.7290699 -3.2550442 -1 0
0.77612913 5 -0.032966442 0
-8.9264202 5 -0.62263429 0
-10 4.7633839 -0.48396468 0
-10 -0.86375219 0.14265469 0
-5.9805608 -0.98412913 1 0
-10 -2.3263144 -0.35971111 0
10 -1.0274258 0.95994103 0
2.7518122 3.3377309 1 0
3.3769481 -5 -0.23315908 0
0.6733005 -0.9767096 -1 0
-10 4.624907 0.55734169 0
-5.8155818 1.9950861 -1 0
-10 -3.2266915 0.056397926 0
8.5403538 -0.22806229 -1 0
-1.2925504 5 -0.024954997 0
9.7092133 -3.6478379 -1 0
-10 -1.1600097 0.26034731 0
10 -0.70196038 -0.76660299 0
3.6227562 1.4977731 -1 0
-5.881382 2.0238147 -1 0
-4.4494715 5 -0.085169435 0
-0.86150682 4.2213402 1 0
-10 4.8783011 0.63816595 0
-10 -0.19520496 -0.33496359 0
-0.56592846 -3.0126901 1 0
10 0.22988604 0.24477236 0
-8.0161877 5 0.44312382 0
-5.5849581 5 -0.42459363 0
10 -2.4640994 0.38294259 0
0.99448735 -5 -0.5419119 0
5.0142832 5 -0.4825865 0
10 4.1128211 -0.99107885 0
1.5981129 -0.15379445 -1 0
-3.7056282 -5 0.68116701 0
10 3.6464348 -0.53524125 0
6.0481415 -1.9562622 -1 0
-10 2.0025208 0.56698853 0
4.1006103 4.7393336 1 0
7.8503003 1.0084915 -1 0
-9.7190619 5 -0.4280611 0
-2.1630061 2.3997049 -1 0
7.0772805 -3.4287326 -1 0
-1.4870729 -5 0.6782493 0
9.671133 5 0.3957746 0
10 -0.57850999 -0.80513179 0
-10 -3.041342 -0.32821956 0
-7.7050557 2.3912358 1 0
4.7363982 -4.8805823 1 0
1.0595723 5 0.62740594 0
8.5830994 2.2067652 1 0
0.14126194 5 -0.14025381 0
-6.2302966 2.3417914 1 0
-1.7530706 -1.544281 -1 0
-7.24612 -1.6130149 1 0
6.4258685 -5 -0.17053933 0
8.9985151 5 0.76423097 0
-6.9803047 -3.6769676 1 0
1.5365797 5 -0.42032149 0
3.3357222 -3.0514243 1 0
10 -3.5354455 -0.58634228 0
-1.6243488 -0.36074162 -1 0
-0.96744204 5 -0.37466165 0
-1.5957752 5 0.4019092 0
10 3.0922375 0.29044598 0
4.5863543 1.5831003 1 0
10 -0.18811975 -0.52199912 0
8.9172382 5 -0.95432693 0
-0.92698336 1.8006873 -1 0
-10 0.23611739 0.99189734 0
2.8208187 3.1511629 1 0
-8.0915289 0.40392867 1 0
-2.8441367 1.362061 1 0
-10 0.51506084 -0.24012993 0
-1.8482958 -2.8015075 -1 0
-8.1387682 5 -0.91972136 0
3.0687544 5 0.98354644 0
-7.9138517 2.8061783 1 0
10 0.9913466 0.14061397 0
-5.6247334 -4.304502 -1 0
10 -1.7408392 0.5630191 0
-0.10289793 3.059289 1 0
-2.5696564 2.7198679 -1 0
1.0179278 5 -0.92535251 0
-1.7683934 -5 -0.70432788 0
-10 3.0090051 -0.60706943 0
10 1.0942061 0.43853834 0
10 3.1098044 0.59783697 0
9.3182964 5 -0.5798915 0
6.166429 4.4338202 1 0
7.2418914 5 -0.51726073 0
4.9581847 5 -0.075720333 0
10 0.18954723 -0.98484457 0
-10 1.6592818 0.40439704 0
10 -0.90323371 -0.55265522 0
1.5734712 -5 -0.26895767 0
7.2563229 -1.7524344 1 0
5.3337474 -1.3320312 1 0
-10 -4.4622884 -0.9331038 0
-3.0914309 -3.4456651 -1 0
10 4.4246573 0.86964661 0
-0.84150201 -5 0.58327317 0
-5.1958594 -5 0.55675012 0
-3.2476907 5 0.4060843 0
-5.6580858 -5 -0.038424321 0
3.1118953 1.6800096 -1 0
-6.3654356 3.9426718 -1 0
1.154922 5 -0.69368458 0
2.7886574 5 -0.99726546 0
-10 1.5516225 -0.2182696 0
7.4032192 -5 0.023577971 0
-10 -3.1718147 0.16655549 0
-0.33248222 1.0829033 1 0
-4.3734989 5 0.92788267 0
-10 -1.3320569 0.1653682 0
10 -4.1574969 -0.054145027 0
6.9072452 0.82399374 -1 0
5.4505649 4.7687974 -1 0
6.6703229 -5 -0.91660762 0
8.4630318 5 0.097849458 0
-7.3906703 -1.3186255 1 0
-0.95543498 2.873889 1 0
-1.039672 5 0.52989632 0
7.6842737 1.1427524 1 0
-10 -1.4275297 0.34972274 0
10 -1.3061881 -0.67002171 0
-10 4.7549114 0.4356375 0
-10 -0.52158457 -0.54161441 0
-9.6836061 5 0.51987177 0
10 -2.401957 -0.21715835 0
-2.6111121 3.0301371 1 0
-10 4.2917161 -0.43697289 0
5.983675 -5 -0.87917662 0
4.3739595 0.44072503 1 0
-10 1.3257769 0.90055555 0
-10 -3.3126822 -0.044794567 0
10 -1.863561 0.82144958 0
10 1.3171885 -0.41960227 0
-7.9521332 5 0.15736672 0
-2.0086312 -1.278515 1 0
10 -1.5014548 0.032903686 0
-4.8539839 2.5566437 1 0
1.0555159 5 -0.99977094 0
0.14915878 -5 -0.92390865 0
10 -2.8630161 -0.66300511 0
-10 -4.1892772 0.90835571 0
-10 0.81883401 -0.63998592 0
10 -0.29756227 -0.33969611 0
-0.52721661 -0.32530943 1 0
3.3195729 5 -0.79742348 0
-10 -1.630657 -0.27115241 0
0.99742639 5 0.75469023 0
6.1352735 -5 -0.32602078 0
5.1182475 4.366127 -1 0
1.9654126 -3.3374054 1 0
-9.6148558 2.1248 -1 0
-10 2.4992676 -0.14918181 0
-6.2312946 -5 -0.063211337 0
8.3108721 -4.1817417 1 0
-0.19208552 5 -0.78766763 0
-1.1272445 5 -0.89079803 0
-10 -4.0177622 0.2842879 0
9.522687 5 -0.95778668 0
-10 0.91404605 -0.62278289 0
-5.8645282 -2.3507037 -1 0
10 -1.1979378 -0.30365768 0
10 -3.7018747 -0.80847216 0
1.5267446 -5 0.20508806 0
-10 -1.5460331 0.84726685 0
10 1.5669384 -0.56665492 0
3.8366494 3.755847 1 0
10 3.6531246 0.12964025 0
10 0.51000774 -0.79261595 0
6.0118117 5 0.36441836 0
0.60358095 -5 -0.050014235 0
2.3522789 4.9450512 -1 0
5.6565118 5 -0.27590537 0
7.291132 5 0.51149452 0
10 3.4925683 -0.57628953 0
-10 -3.5864391 -0.076469913 0
4.3378911 -3.1773579 -1 0
10 2.8401589 0.45745873 0
10 -4.1195679 0.47690478 0
-6.525631 -5 0.011215447 0
1.1641704 5 0.91300422 0
2.5840433 1.7215508 -1 0
-10 -3.9034939 0.23544484 0
10 -2.8317332 0.55139965 0
6.1350551 -5 -0.36695608 0
10 -2.8289573 0.30552104 0
-8.2465897 5 0.2008929 0
-6.2711015 -5 0.63266873 0
7.581295 5 0.99928081 0
6.2395687 5 -0.75483811 0
10 -3.0875642 -0.97660452 0
-2.2615469 -5 0.55694842 0
4.9072709 5 0.37161282 0
-1.3983414 5 0.51098156 0
2.6077931 5 0.65252471 0
9.8857489 -5 -0.050701205 0
0.29647151 5 0.45182511 0
10 2.7483163 -0.085472658 0
-10 -4.1220055 -0.24638058 0
0.62967062 3.7122712 1 0
6.40797 5 0.50507593 0
-10 -1.1557417 -0.75542992 0
5.990922 5 0.9185195 0
1.9573489 5 -0.96442014 0
-10 -3.9664106 -0.4445487 0
-10 1.8635871 -0.83280373 0
-3.2470803 5 0.28900775 0
-10 -3.3339481 -0.71401972 0
10 3.336571 -0.069713771 0
-1.0287451 0.039154872 -1 0
-1.293359 -1.8817059 1 0
-10 -3.6710544 -0.23557971 0
-10 -2.9484963 -0.32934293 0
10 3.1141331 0.70646912 0
-10 3.2668722 -0.96943808 0
10 2.6399038 -0.48863825 0
-5.8740149 -5 0.14039242 0
-2.2743852 4.4774766 -1 0
-5.3234854 -5 -0.66830856 0
-10 -4.1551571 0.44112179 0
10 -4.5559158 0.68368328 0
10 -1.2655269 -0.03211233 0
5.2144699 5 0.93789428 0
0.95875424 2.9859586 1 0
-6.7194271 -5 -0.13256994 0
3.5724623 4.0596375 1 0
-10 1.0682554 0.29141906 0
-10 3.899523 -0.58476585 0
-9.9655952 -5 -0.35139692 0
-10 4.650661 0.77679884 0
8.5163727 5 -0.7612896 0
-7.0583835 4.3827534 -1 0
-10 -0.71827888 -0.81214392 0
-9.3296995 5 0.76115894 0
-3.7551627 -4.8487215 1 0
-10 1.3474922 -0.51039302 0
-1.2031519 -4.2096648 -1 0
-1.5237974 -3.5306456 1 0
-10 -1.0024437 -0.26629287 0
3.4399989 5 0.90911609 0
4.7874312 5 -0.63285506 0
-10 -2.0915258 -0.22734348 0
-9.9209175 5 -0.85030365 0
10 2.6492965 -0.47024795 0
-4.6627383 -5 0.75011492 0
10 -0.65009671 -0.99423373 0
0.76907349 -3.1641543 1 0
-10 -0.0021097532 0.52271688 0
10 1.1135144 0.36027756 0
8.7531509 -5 0.59442985 0
-7.5533013 5 0.78757095 0
10 2.0169761 -0.12532286 0
3.3170691 3.8564522 1 0
-4.0850711 5 -0.0083296029 0
-8.3930073 -5 0.49189582 0
10 -2.6247573 -0.62297332 0
0.29127544 4.5136018 -1 0
10 2.4581366 -0.43173939 0
8.2193689 -5 -0.68279481 0
7.8351846 5 -0.70984358 0
-8.1094046 -5 -0.7240321 0
-9.8206873 4.4507113 -1 0
-10 -4.3610716 0.68455034 0
10 3.6502795 0.29175901 0
6.0385094 -5 -0.87813729 0
-1.3095579 -0.3813633 1 0
10 1.4272876 0.63656551 0
-2.4007328 1.0142672 -1 0
-10 -3.7044315 0.73246247 0
10 2.7997243 0.56208575 0
-2.3410089 2.2418535 1 0
7.2574587 -5 -0.50362635 0
-9.9626684 4.4854431 -1 0
7.160357 -5 -0.60938942 0
-10 3.3612394 0.43654606 0
-10 -2.1361847 -0.43393412 0
-10 -0.36754009 0.81966585 0
6.1250191 -5 0.69767636 0
10 1.8928219 -0.65108889 0
10 -3.1442845 0.94396222 0
-10 1.0761249 -0.36769661 0
-5.3616667 1.268521 -1 0
-3.2483802 3.4337976 1 0
10 2.0534344 -0.2287661 0
6.0269361 -5 -0.25929323 0
-1.1883682 0.027459446 1 0
-0.97726595 5 0.59230173 0
-3.7289789 -5 -0.035314489 0
8.6361589 -5 0.71103954 0
3.3839951 3.706351 -1 0
6.8022461 0.77262217 1 0
-10 0.3938843 -0.359225 0
2.1651661 0.1872962 -1 0
10 0.4868333 -0.78054696 0
0.80142635 2.4446161 1 0
8.819459 0.052019008 -1 0
-6.6424932 -5 -0.37940273 0
-7.7066317 -2.7121763 1 0
7.14468 1.442329 -1 0
9.5475807 0.56746507 1 0
-5.3434973 -5 -0.22648421 0
-6.7843294 0.52636427 1 0
10 -3.2642415 -0.82996774 0
-6.4771032 -4.3662448 -1 0
-0.65201515 -4.2744327 1 0
-9.5579367 5 0.25004652 0
-10 4.3980513 0.91920525 0
-5.3589678 -5 -0.090528898 0
-6.3923683 -5 -0.35720599 0
-10 3.9194844 0.973719 0
-10 -4.7972465 0.2210575 0
4.5214992 -0.81098729 1 0
7.4391146 -5 0.042275414 0
10 1.0485164 0.89863211 0
10 0.49879983 -0.75273371 0
-7.620615 -0.94152462 1 0
1.8427091 -1.5049394 -1 0
8.6709442 5 -0.13614109 0
-6.1243052 -0.60544312 1 0
5.8496933 -4.8387108 -1 0
-9.9214487 5 -0.92257625 0
-10 -0.25124559 -0.31213239 0
-6.6803579 1.9189713 1 0
-5.2821612 -5 -0.62711322 0
8.9288874 -1.4748735 -1 0
-5.3194928 0.96924514 1 0
6.9725018 -5 -0.074884214 0
5.8173785 4.7125936 1 0
-8.0371637 -5 0.59963489 0
10 1.4782534 0.35269699 0
3.5373461 -5 0.55686527 0
-3.9140308 -5 -0.25695726 0
3.0445759 -0.40408093 -1 0
8.4510698 -0.84888035 -1 0
9.2808895 5 -0.79033434 0
8.8138456 -5 -0.7477439 0
1.2960693 -2.4488552 -1 0
10 -3.833282 0.6109153 0
6.6680837 -5 0.60796809 0
-8.8331661 -5 -0.79516941 0
5.7780151 5 0.58519107 0
-1.1872544 3.3351974 -1 0
1.0666026 1.5214837 -1 0
9.1021767 -5 -0.59071589 0
-10 -4.4086323 -0.25308752 0
-8.2009735 0.085968979 1 0
10 -0.33473533 -0.89508307 0
10 1.9613662 0.3740021 0
9.3050041 -1.8237549 -1 0
10 -1.1101723 0.96988481 0
10 -4.2206588 0.85058713 0
0.68691337 -3.3599551 1 0
5.7889228 2.4432976 -1 0
-9.6101141 1.38675 -1 0
6.6090374 5 -0.35001677 0
10 -0.76210296 -0.54113311 0
-6.4118881 -5 0.89925373 0
7.3147559 -5 -0.81962478 0
10 -1.7474056 -0.96359479 0
10 -4.5664692 0.012599262 0
1.1494186 -2.692636 1 0
-10 -0.23071593 0.43053624 0
0.41210136 -1.5429473 1 0
-0.98069936 -5 0.50851786 0
-10 -0.16560312 0.62608397 0
-2.7859075 0.55488235 1 0
5.2806988 -3.6293373 -1 0
3.7267017 5 -0.75431478 0
10 3.3334405 -0.0085682506 0
0.40409812 -0.79560965 1 0
-8.1471128 -4.5089235 1 0
-1.1625711 5 0.14130116 0
-0.50874972 -1.0139914 -1 0
-6.8060703 -5 0.75293392 0
-0.49960631 5 -0.69158632 0
-9.0226784 -5 0.63257933 0
8.8129539 5 0.11796067 0
5.5362811 0.25706163 1 0
4.3016319 -0.092675023 1 0
-9.3328295 -5 -0.433478 0
1.7385532 -5 0.71395165 0
7.4207692 5 -0.56928986 0
8.1864824 -1.2400692 -1 0
-10 4.8017092 0.69044191 0
-0.29071048 -4.2640238 1 0
-5.095181 -5 0.10400674 0
2.9034371 1.6270952 1 0
-10 -4.8797717 0.014216577 0
10 -2.3722577 -0.59781402 0
10 2.0214496 0.87357831 0
-10 -4.6283507 0.1158402 0
-9.9394121 -5 0.67025739 0
-3.2128451 -5 -0.1747476 0
3.6410434 2.8367984 -1 0
-8.7503099 5 0.489113 0
3.6291621 -1.269172 1 0
4.1576242 -5 -0.45734489 0
-10 3.5836654 0.62142068 0
6.3947096 5 -0.23116861 0
9.423912 -5 0.8419413 0
-7.0308042 -0.8533656 1 0
-8.430604 5 -0.66265643 0
-9.4467096 -5 -0.60187721 0
-10 -1.3371286 0.53232199 0
10 -4.1283002 0.37957096 0
0.8843053 3.7435682 1 0
0.38339269 -5 -0.70394671 0
-10 1.9809345 -0.86448807 0
-9.0835276 5 -0.51867771 0
1.6229347 -5 -0.54041666 0
1.2641604 5 0.10144366 0
-10 0.14640811 0.72887546 0
1.3215761 -5 0.11718239 0
3.6500461 -5 -0.14033529 0
-2.5965717 -5 0.50340933 0
-4.7874393 4.2182169 1 0
-5.2010708 0.75831175 1 0
-7.814383 5 0.69317055 0
-2.4738135 5 0.54782468 0
0.94878972 -5 -0.83621645 0
10 -2.2864113 0.52368796 0
2.5216804 -1.3701227 -1 0
-5.3522339 5 -0.11820303 0
1.7807752 -5 -0.14284278 0
-10 3.7708309 -0.96341616 0
-10 -4.9376569 0.066853769 0
4.4896269 5 0.69114161 0
-10 -3.0946679 0.88181788 0
9.9315319 1.3817109 1 0
-0.081946671 -1.8254491 -1 0
-5.363543 2.2365663 -1 0
1.1034312 5 -0.20246843 0
-6.3704934 2.0411696 1 0
-3.8273067 4.9474974 1 0
-6.0734053 -5 -0.98758566 0
9.1735592 -5 0.025660032 0
-8.0035601 -4.3714767 1 0
-4.0428267 0.66101927 -1 0
6.4803872 1.0560136 1 0
-7.2559199 1.5713904 1 0
-7.3909063 2.3523948 1 0
10 -4.1846852 -0.33012155 0
-2.6658158 5 -0.93655896 0
5.1489897 -5 -0.91135484 0
10 -2.6772807 0.50157523 0
-4.7143846 2.9958467 1 0
-6.9364653 2.4444094 1 0
-6.19555 2.4390368 1 0
-10 -1.350711 -0.23339322 0
-5.4452972 -5 0.19706628 0
-1.2250881 1.4535666 -1 0
8.0049353 -5 0.31178018 0
1.8546191 5 -0.37551126 0
-7.408453 1.8212084 1 0
