# .PCD v0.7 - Point Cloud Data file format
VERSION 0.7
FIELDS x y z intensity
SIZE 4 4 4 4
TYPE F F F F
COUNT 1 1 1 1
WIDTH 1376
HEIGHT 1
VIEWPOINT 0 0 0 1 0 0 0
POINTS 1376
DATA ascii
2.7533801 -1.3913913 0.73174518 26
9.0821037 -1.5391946 -0.22288938 1
2.6895435 -1.3988175 0.73977965 29
8.3716984 -3.7338586 -0.22083111 1
2.8327568 -1.3915321 0.72091943 21
2.4911895 -1.560653 0.75167346 27
9.1076345 -1.3863024 -0.22285242 1
9.1124191 -1.3556783 -0.22284551 1
8.4284163 -3.5898271 -0.2194937 1
8.5518551 -3.3081009 -0.2199312 1
9.223115 0.55136704 -0.22646542 1
2.4934101 -1.6794995 0.74010319 26
9.060051 -1.6596488 -0.22292157 1
9.2216778 -0.43464759 -0.22519584 1
9.0922356 -1.572513 -0.22537573 1
9.1647129 -0.95766163 -0.2227716 1
9.1721163 0.88668942 -0.22279795 1
9.1689672 0.91752875 -0.22280343 1
9.0714245 -1.5986973 -0.222905 1
9.229044 0.24063557 -0.2251981 1
8.7298355 -2.8137243 -0.2190363 1
9.1908913 0.85735786 -0.2252707 1
2.8057847 -1.3992145 0.72400588 25
9.1674185 1.1047812 -0.22593839 1
2.6575181 -1.3908021 0.74473512 31
9.2083492 -0.065072209 -0.22146983 1
9.1327286 -1.3273872 -0.2253172 1
9.2216654 -0.22031099 -0.22394879 1
9.1620474 -1.0510069 -0.22402532 1
8.8128643 -2.6470189 -0.22328945 1
9.2156906 0.11932656 -0.22271366 1
9.2085857 -0.0062257778 -0.22147067 1
9.2326498 0.36666307 -0.2264467 1
9.2146721 0.1797673 -0.22271653 1
8.9899101 -1.993354 -0.2230248 1
2.4886584 -1.5028031 0.7572999 43
9.1623468 0.97917765 -0.22281511 1
8.9832525 -2.0220454 -0.22303469 1
2.4885144 -1.5133464 0.75636131 37
9.2100163 -0.68290818 -0.2258348 1
9.2245274 -0.52815247 -0.22644098 1
9.2050419 -0.25088474 -0.22147126 3
9.1969671 -0.58862358 -0.22272857 1
8.5898695 -3.1902106 -0.21862252 1
8.7057476 -2.8724403 -0.21844704 1
9.1554766 1.0392395 -0.22282715 1
9.2006817 -0.83806199 -0.22647209 1
9.1121187 -1.4813795 -0.22597213 1
9.2112961 0.30372757 -0.22272439 1
9.1711836 -0.89599669 -0.22276278 1
8.3399582 -3.8198166 -0.22213073 1
9.1172361 -1.4507352 -0.22596474 1
9.1222467 -1.420069 -0.22595747 1
9.1853447 -0.7431922 -0.22274359 1
9.2101822 0.33471146 -0.22272678 1
9.2026434 -0.49579412 -0.22272153 1
8.7036219 -2.9388106 -0.22157784 1
9.1516085 1.0715586 -0.22283395 1
8.984293 -2.0860724 -0.22553463 1
9.1989679 -0.55768847 -0.22272606 1
9.1799402 -0.80495983 -0.22275086 1
9.2047215 0.457046 -0.22273786 1
9.1859894 0.73541492 -0.22277303 1
2.8484612 -1.387653 0.71906674 24
9.2269449 -0.40691006 -0.22581382 1
9.2112951 0.1487025 -0.22209544 1
9.1986761 -0.18878721 -0.22023113 3
8.7678318 -2.6977136 -0.21897896 1
9.2019291 -0.34375271 -0.22147425 1
2.508219 -1.666784 0.7395004 31
9.0036154 -1.9328842 -0.22300453 1
8.8031712 -2.6115906 -0.22017665 1
2.5073216 -1.5955477 0.74638069 48
2.5080948 -1.6078228 0.74513066 73
8.8978395 -2.4165509 -0.22566362 1
8.6548691 -3.0166364 -0.21852393 1
2.9420612 -1.3933122 0.70576048 30
2.4866219 -1.6036038 0.74822557 40
9.1826963 -0.77408278 -0.22274716 1
9.1885023 0.70451719 -0.22276838 1
2.4853787 -1.401641 0.76667875 1
9.2076283 0.39665809 -0.22273202 1
9.2307186 -0.31377247 -0.22580989 1
9.2185106 -0.62120926 -0.22644861 1
9.2322598 0.026373638 -0.22518869 1
9.2224312 0.67600811 -0.22772045 1
9.1347933 -1.0789212 -0.22031315 1
9.2030745 0.48799753 -0.22274108 1
8.9807968 -2.1171882 -0.22616525 1
9.1412163 -1.2972475 -0.22593017 1
9.1952877 0.61331213 -0.22275586 1
2.4848323 -1.6257412 0.746346 31
9.089098 -1.6335334 -0.226631 1
9.1272449 -1.1076043 -0.21969862 1
9.2377672 0.42915046 -0.22769125 1
9.2360649 0.057449386 -0.22580905 1
8.9187222 -2.3562658 -0.22625788 1
9.2111959 0.76559162 -0.22711416 1
9.1702213 0.82424039 -0.22154804 1
2.5082521 -1.438803 0.76045805 1
9.1848783 -0.99111289 -0.22649379 1
9.241683 0.20986561 -0.22705491 1
8.6524296 -3.1146801 -0.2235318 1
9.047802 -1.8789829 -0.22794206 1
8.7842045 -2.7371235 -0.2233326 1
9.1233244 -1.1382898 -0.21970411 1
8.6632519 -3.0856264 -0.22351535 1
9.0827427 1.46538 -0.22107299 1
9.0411901 -1.9093822 -0.22795184 1
8.7745981 -2.7666018 -0.22334702 1
8.6304836 -3.1726654 -0.22356506 1
9.0757399 -1.5066411 -0.22102292 1
8.5894527 -3.2564607 -0.22237618 1
9.2439022 0.27371484 -0.22767837 1
9.2407665 0.52126008 -0.22893997 1
9.1942368 -0.28153339 -0.21992333 3
2.5130813 -1.45296 0.75858867 1
9.1994438 -0.93013102 -0.22772343 1
9.2326202 0.64555138 -0.22895534 1
8.4351616 -3.5253587 -0.21635564 1
8.5639591 -3.2132556 -0.21615978 1
9.2401571 -0.37636775 -0.22767098 1
8.9176435 -2.389832 -0.22751029 1
8.680232 -2.8979149 -0.2159837 1
9.1971445 0.95173186 -0.22776575 1
8.4155474 -3.6858604 -0.22389205 1
9.0353575 -1.9718618 -0.22921129 1
8.3815489 -3.6364822 -0.2158118 1
9.2135868 -0.86899823 -0.22895415 1
0.43007824 -1.4447222 0.94084889 72
2.500226 -2.4956915 0.65002429 17
0.70920503 -1.4616479 0.93158865 11
0.46083352 -1.4482832 0.93995869 68
1.1941694 -1.4554534 0.90356612 6
0.91464627 -1.4525183 0.92315072 9
2.5045431 -2.0428109 0.70133233 25
2.5012851 -2.1569695 0.68912762 23
0.8333385 -1.4511638 0.92771608 9
1.0771104 -1.4589766 0.91182983 6
2.5036292 -2.1881294 0.68537754 22
2.5043395 -2.1285765 0.6919477 16
1.0446007 -1.4575311 0.91428173 6
1.4664143 -1.4511696 0.88021553 6
0.73009533 -1.4581639 0.93130851 13
0.97027606 -1.4570739 0.91917092 9
1.3662363 -1.4543632 0.88913149 20
1.388376 -1.453059 0.88728899 17
2.5044167 -2.2509162 0.67818409 18
2.5039847 -2.3625553 0.66535807 13
0.73623466 -1.4605786 0.93069249 11
1.0148772 -1.4607704 0.91579944 7
1.0711213 -1.4598007 0.91213334 6
1.0381387 -1.4584727 0.91458446 6
2.5057757 -1.9183058 0.71447217 23
0.53839099 -1.4533191 0.93789047 39
0.50720441 -1.4514098 0.93878007 48
0.61211407 -1.45709 0.93550336 20
1.4192097 -1.4524282 0.88452154 11
0.58596593 -1.4578401 0.93608809 24
0.85757101 -1.4551926 0.92587698 9
0.48124415 -1.4483273 0.93967783 50
0.75125301 -1.4563528 0.93071598 10
2.5015917 -2.4101188 0.66003656 13
1.199245 -1.4524399 0.90357399 6
1.2063446 -1.4527956 0.90295947 6
0.9879306 -1.4557298 0.91826004 8
0.46606907 -1.4497966 0.93965405 61
1.253227 -1.4493812 0.89959145 6
0.51758128 -1.4521207 0.93848348 54
0.90884477 -1.4527017 0.92345452 9
2.5014801 -2.1707571 0.6875639 19
2.5055094 -2.3477147 0.66692454 16
1.3798307 -1.4519252 0.88821417 19
0.6022923 -1.4609435 0.93517518 21
2.5038619 -1.8633429 0.72041261 24
0.54853135 -1.4518523 0.93790638 30
2.5048137 -2.3159661 0.67067719 21
0.82763219 -1.4510303 0.92802 10
2.5029099 -2.2027285 0.68381238 19
0.61795431 -1.4599861 0.93488687 20
1.0030162 -1.4619004 0.91640663 8
2.5036972 -2.4294567 0.65753728 16
0.45087945 -1.4511067 0.93963021 65
1.2732309 -1.4482809 0.89805853 3
1.2604107 -1.4494897 0.89897698 4
1.0591538 -1.461377 0.91274029 6
1.4278395 -1.4533632 0.88359654 11
0.50236517 -1.4539701 0.93845963 47
0.7681759 -1.4575763 0.92980397 10
0.67204529 -1.46462 0.93246895 17
2.502281 -2.0824687 0.69726229 23
2.5076685 -1.9071846 0.71541357 28
0.72041154 -1.4628078 0.93098056 12
0.85248846 -1.4570134 0.92586905 9
1.0633656 -1.4570683 0.91305971 6
2.5063779 -2.3817923 0.66285926 13
0.74588186 -1.4558302 0.93102038 10
0.93308502 -1.4556922 0.92161542 7
0.92477322 -1.4484248 0.92316657 8
2.5090768 -2.0031447 0.70509303 23
2.498168 -2.528765 0.64626735 12
2.5062604 -1.8392127 0.72260594 22
0.77718431 -1.4507271 0.9304437 10
0.97775108 -1.4602643 0.91824412 8
1.0284503 -1.4631146 0.91456938 6
1.4055275 -1.455201 0.8854388 16
1.2692393 -1.4532139 0.89773947 5
1.1337459 -1.4558064 0.90816432 6
0.44581375 -1.451508 0.93962228 72
0.5903638 -1.4530591 0.93672061 24
0.48608986 -1.4458381 0.93999827 58
0.66693103 -1.4657933 0.93246096 16
0.47150353 -1.4532574 0.93903691 61
0.81811517 -1.4563196 0.92769229 10
1.2223899 -1.4569374 0.90110755 6
1.29093 -1.4532315 0.89589632 6
2.5052738 -1.775528 0.72917336 24
1.4391589 -1.447257 0.88330132 6
0.4972885 -1.4545512 0.93845171 50
0.63482267 -1.4646653 0.933662 22
0.4400157 -1.4420418 0.94117731 68
0.86652839 -1.4498302 0.92620385 8
1.4141333 -1.4562091 0.88451368 11
0.72602808 -1.4633554 0.93067652 14
0.76308501 -1.4590852 0.92979598 10
0.43484169 -1.4404346 0.94148207 77
0.90495872 -1.4584799 0.92282277 9
1.0849102 -1.4616417 0.91090357 6
0.42022723 -1.4493058 0.94020778 85
0.55987746 -1.4581225 0.93667287 34
0.78789294 -1.4494783 0.93014765 9
0.69387865 -1.4655032 0.93156463 11
0.88754958 -1.4588449 0.92373407 8
0.40494791 -1.448163 0.94049662 100
0.60812044 -1.4638786 0.93455869 20
0.8042689 -1.4483967 0.92954761 10
0.53250825 -1.4481547 0.93881977 45
1.1647326 -1.4633834 0.90477151 6
1.1045299 -1.4625627 0.90937006 6
1.3311623 -1.4571455 0.89189225 50
2.5074799 -2.2698936 0.6756863 14
1.4305172 -1.4463866 0.88422632 9
0.9812364 -1.4543968 0.91887522 8
0.88980389 -1.4495252 0.92498893 8
0.55478591 -1.4589044 0.93666488 32
0.68876052 -1.4667528 0.93155664 11
1.23071 -1.4471812 0.90174615 6
1.1659065 -1.4536161 0.90602469 6
0.62189376 -1.4531711 0.93583155 22
2.499063 -1.7830968 0.72916377 24
2.5098414 -1.9759576 0.70790952 25
0.71580178 -1.4660611 0.93066049 12
0.59543473 -1.4521531 0.9367286 24
0.52341646 -1.4573451 0.93755418 47
0.77440435 -1.4598316 0.92918807 10
0.99790877 -1.464229 0.91639864 8
0.68363875 -1.4679843 0.93154866 15
0.45527714 -1.4428141 0.94088846 65
2.500736 -2.2159348 0.68255776 16
0.91823173 -1.4468176 0.92378199 8
0.74292666 -1.4648712 0.92976445 10
1.1448541 -1.451908 0.90786874 6
2.4966612 -2.5092239 0.64876747 12
2.501709 -1.9555004 0.71102506 25
2.5034065 -2.5528605 0.64283448 12
0.62970781 -1.4657085 0.93365395 26
0.8434574 -1.447638 0.92773187 10
0.80223316 -1.4594352 0.92798024 10
1.4528669 -1.4441869 0.88238418 5
1.3543215 -1.4482721 0.89098984 31
0.39998323 -1.4503773 0.94017601 100
0.86011302 -1.4479694 0.92681944 9
1.086368 -1.4519953 0.91215712 6
0.83710045 -1.4456788 0.92834759 10
2.5088496 -1.8544739 0.72073311 22
0.94044018 -1.4590614 0.92068845 9
1.378206 -1.4603883 0.88727319 17
2.5001097 -2.0244315 0.70382798 24
2.5088155 -2.304064 0.67162186 18
2.4988387 -1.8721994 0.720092 26
0.89486068 -1.4475739 0.92499679 8
0.64339173 -1.4547969 0.93492675 19
2.5080364 -1.8032541 0.72604954 20
2.5090749 -2.2874885 0.67349911 21
0.64846766 -1.4537059 0.93493468 20
0.9531824 -1.4601352 0.91976988 9
2.5098424 -1.8956926 0.71635538 34
1.308809 -1.4460609 0.89529854 11
0.79713625 -1.4610628 0.92797232 10
1.1059186 -1.4528857 0.91062349 6
0.42553651 -1.4529366 0.93959045 77
1.2441341 -1.4574422 0.89926445 6
2.4990156 -2.1085825 0.69475472 19
0.80870444 -1.4448676 0.92986733 10
0.54233015 -1.4447743 0.93914801 34
0.96650028 -1.4630249 0.9185394 9
2.507004 -2.4503181 0.65472704 12
1.1119198 -1.451921 0.91032004 6
1.3010522 -1.4465115 0.89591205 9
0.5764305 -1.4634655 0.93544751 27
0.58186811 -1.4645559 0.93514317 21
0.65737092 -1.469959 0.93213314 19
2.5103076 -2.0626059 0.69852597 23
1.1760343 -1.4477689 0.90604043 6
2.4984934 -2.2291543 0.68130302 18
0.87735081 -1.4626783 0.92371815 8
1.1596191 -1.4662766 0.90476358 6
2.5102417 -2.0770099 0.69696182 21
2.5088005 -2.1493912 0.68913925 21
0.56310242 -1.4456178 0.93855488 32
0.75412673 -1.4472978 0.93197179 10
2.4991727 -2.00804 0.70570332 23
2.4978402 -2.0927715 0.69662976 19
0.63750106 -1.4520034 0.93554318 22
0.40926784 -1.4340961 0.94269323 100
2.5131388 -1.9928735 0.70572495 23
0.70118588 -1.4514617 0.93345308 11
1.0122617 -1.4685196 0.91485691 7
0.56814754 -1.4448068 0.93856275 33
2.4960289 -1.8176352 0.72603101 20
1.0470656 -1.4497226 0.91522408 6
2.5138314 -1.9390045 0.71135658 30
1.3899416 -1.4445845 0.88822991 15
0.78049105 -1.4435081 0.93138736 9
0.51105744 -1.4409916 0.94035029 47
0.41427365 -1.4338224 0.9427011 97
1.1343356 -1.4689976 0.90628827 6
1.2750357 -1.440032 0.89899975 5
1.3447289 -1.4453521 0.89222622 27
0.94042236 -1.4440794 0.92287821 7
0.52929109 -1.4625463 0.93662494 46
2.4975274 -2.3227749 0.67066592 23
0.69563907 -1.45082 0.93375719 12
2.5084555 -2.4701278 0.65222681 22
0.6633653 -1.472674 0.93151689 18
0.47735298 -1.4606297 0.9377948 61
2.4953992 -2.3864319 0.66346782 12
0.82635045 -1.4639791 0.92614102 10
1.1012509 -1.468747 0.90873927 5
1.1169822 -1.4491951 0.91032791 6
1.1689988 -1.44728 0.90665513 6
0.88454008 -1.4663178 0.92279088 9
2.4932573 -1.8024831 0.72790354 24
1.2070638 -1.4431332 0.90421188 6
0.67398965 -1.4499677 0.93466181 19
1.2397381 -1.4392099 0.90207303 5
0.49027675 -1.4374411 0.94125617 49
1.4574616 -1.4606086 0.87988877 5
2.4920156 -2.4687808 0.65407813 12
2.4967453 -1.9373775 0.71351981 24
1.349823 -1.4634761 0.88941872 32
1.0381653 -1.4716136 0.91270757 6
1.233937 -1.4637645 0.8992486 6
0.9504891 -1.4398063 0.92289388 9
1.1493623 -1.4720088 0.90474755 6
1.3105189 -1.4377457 0.89623964 24
1.196084 -1.470376 0.90137935 6
1.306928 -1.4663372 0.892793 7
1.0123948 -1.4422978 0.91861105 7
1.3474649 -1.4699135 0.88878942 42
-0.058982674 -1.449114 0.93163353 12
0.26426739 -1.438396 0.94183987 83
-0.074671634 -1.4468272 0.93129593 13
0.091246329 -1.4375869 0.93875229 45
-2.5128884 -2.1072822 0.60459942 66
-2.5111387 -2.1524713 0.60053581 78
0.12753233 -1.4372429 0.93974793 54
0.048910048 -1.4418942 0.93680871 30
-2.3762076 -1.5602113 0.6705054 63
-2.3790567 -1.6255455 0.66487068 72
0.0065821367 -1.4430225 0.93517792 24
-0.13356084 -1.4413719 0.92932618 10
0.35928017 -1.4417967 0.94167626 100
0.11721041 -1.4377246 0.93941885 56
-0.053412888 -1.4485663 0.9319551 13
-2.5131721 -2.076879 0.60741425 68
0.20366701 -1.4361858 0.94143176 100
0.21896437 -1.4374851 0.94145584 100
-0.10693137 -1.4455994 0.92999381 10
0.13257256 -1.4359614 0.94006866 55
-2.3741746 -1.3643274 0.68552226 65
0.002050336 -1.4419888 0.93517077 16
-0.0034296555 -1.4427472 0.93484932 19
0.22900258 -1.4382488 0.94147164 100
-0.085607566 -1.4478111 0.9306531 10
0.14311217 -1.4354031 0.9403981 65
0.27933368 -1.4390407 0.94186354 100
-0.0093742954 -1.445407 0.93421429 17
-2.5072739 -2.2446442 0.59209627 76
-2.3713713 -1.3872757 0.68427569 65
-0.07014785 -1.4501456 0.93099028 12
0.18863477 -1.434749 0.94140816 83
-0.19670737 -1.4446387 0.92547262 10
-2.5086255 -1.882833 0.62556374 68
0.13785245 -1.4346962 0.94038981 65
0.23404437 -1.4346457 0.94210517 100
-2.507216 -1.9098517 0.62337643 66
-0.080804177 -1.4491926 0.93066067 11
-0.18527508 -1.4445857 0.92611629 10
0.086564071 -1.4347862 0.93905777 46
-0.095704831 -1.4448508 0.93063718 10
0.30437821 -1.4437143 0.94127727 100
-2.5151198 -2.0336802 0.61116475 71
-2.3721259 -1.4116091 0.68239778 63
0.32906964 -1.4459741 0.9410032 100
0.10748544 -1.4342291 0.93971634 51
0.023045745 -1.4426118 0.93582952 25
0.37953618 -1.445243 0.94108242 100
0.19326203 -1.4391778 0.94078976 85
0.028491464 -1.4417536 0.93615091 23
-2.5141451 -2.0180128 0.61273026 75
-2.5130973 -1.9574046 0.61836225 75
-2.5150146 -2.1242917 0.60271919 70
-0.065083511 -1.4515454 0.93099827 12
-0.23619509 -1.4422797 0.92353338 10
-2.4536886 -2.4147148 0.58154637 4
-2.4569635 -2.3836486 0.58435643 4
-0.17997688 -1.4464771 0.92612469 10
-2.5150006 -2.2026863 0.59521198 72
0.15313262 -1.4347048 0.94072664 68
-0.21632427 -1.4372885 0.92544168 9
-2.3104424 -2.6159222 0.57676953 10
-2.3700202 -1.398525 0.68365228 65
-2.5094941 -1.9695802 0.61774248 70
-2.3770821 -1.4737216 0.67707253 66
-0.037497316 -1.448645 0.93260586 13
-0.15202096 -1.4456825 0.92773288 10
0.06488996 -1.4429458 0.93714672 30
-2.5083199 -2.1659815 0.59960192 76
-2.3761971 -1.3778244 0.68426788 65
-0.091769286 -1.4501309 0.93001771 10
0.35421842 -1.4399033 0.94198114 100
-2.371588 -1.5082703 0.67520463 66
0.32400963 -1.4479258 0.94068241 100
0.24886386 -1.4435097 0.9408772 100
0.29878825 -1.4455673 0.94095564 100
-0.11081136 -1.4402783 0.93061334 10
0.29374251 -1.4454378 0.94094771 100
-2.3784418 -1.5363864 0.67206573 66
-2.3788481 -1.4869734 0.6758185 68
0.10248045 -1.4334319 0.93970847 51
0.15838066 -1.4333643 0.94104773 69
0.30951464 -1.4378815 0.94222379 100
-2.5150602 -2.0030162 0.61398 75
-2.3716519 -1.49595 0.67614287 65
-2.3818178 -1.6401114 0.66330224 71
-2.5148396 -2.1867146 0.59677625 75
0.34422752 -1.4479152 0.94071418 100
0.31403199 -1.4379492 0.94223088 100
-2.414454 -2.5530803 0.57159901 3
-2.3750296 -1.5975358 0.66769218 66
-2.3700416 -1.4576879 0.67927331 65
-2.5154767 -2.1401548 0.60115445 78
0.36949521 -1.447505 0.94075382 100
0.24382561 -1.443206 0.94086927 100
-2.3771534 -1.3539839 0.68583024 66
0.25365114 -1.4437821 0.94088471 100
-2.508853 -2.2138312 0.59490901 70
-2.3830171 -1.6150564 0.66517711 66
-2.3784075 -1.4378513 0.67957264 66
0.069424443 -1.4437822 0.93715382 32
-0.019021574 -1.4390184 0.93482476 20
0.38931462 -1.4369899 0.94234908 100
0.16886678 -1.4326172 0.94137704 68
-2.3209662 -2.6080599 0.57644004 12
-2.5179811 -2.0500345 0.60928333 71
-0.046596054 -1.4422002 0.93321717 14
0.33913082 -1.4380674 0.94227028 100
0.05544528 -1.4351209 0.9380703 30
-2.3724525 -1.570653 0.67019862 66
-0.032438371 -1.4499307 0.93261385 17
-0.12467725 -1.4483635 0.92871451 10
0.38429788 -1.4371766 0.94234121 100
-0.22133797 -1.4353611 0.92543375 9
-2.3746774 -1.6480807 0.66362655 68
0.19791844 -1.4435915 0.94017142 96
-2.3700149 -1.5191683 0.67458159 66
-2.3874261 -1.6688851 0.66016537 65
0.37460408 -1.4493446 0.940449 100
-0.21015686 -1.4354088 0.92607707 9
-0.20929861 -1.4483961 0.92420143 10
0.11309317 -1.4311041 0.94035083 51
-2.379914 -1.4265369 0.68019575 66
0.14711492 -1.443895 0.93915308 72
-2.4531176 -2.3972409 0.58342409 4
-0.14734045 -1.4493269 0.92742747 9
0.015903588 -1.4511685 0.93425411 21
0.28405705 -1.4332806 0.94280946 100
-2.3681474 -1.4445161 0.68052745 65
0.26893917 -1.4465221 0.94059587 42
0.1840367 -1.4303057 0.94202656 83
-0.17557842 -1.450124 0.9258188 10
-2.5092084 -2.0588183 0.60961014 70
0.095303543 -1.4442705 0.9378202 51
-0.13735959 -1.4359791 0.92994583 9
0.042324271 -1.4486393 0.93554705 31
-2.5074966 -2.0879745 0.6071105 70
0.16409872 -1.4300727 0.9416824 72
0.074465744 -1.4446948 0.93716174 40
-2.4705153 -2.3615623 0.58496046 4
-0.12611979 -1.4354677 0.9305892 9
-0.20449269 -1.4501878 0.92420906 9
0.20936219 -1.4287579 0.94269204 99
0.3341091 -1.4361035 0.94257522 100
-2.4652672 -2.3738923 0.58434319 4
-0.1698662 -1.4500258 0.92614061 10
-0.099040277 -1.4376693 0.93157035 10
-2.3961637 -2.5898781 0.56975132 8
0.1773531 -1.4454877 0.93951344 83
-0.15389034 -1.4346271 0.92929411 10
0.23943995 -1.4290702 0.94305217 100
0.009904827 -1.451867 0.93393183 19
-0.012569641 -1.4365199 0.93546057 15
-2.4651072 -2.3403547 0.58778429 4
0.27390832 -1.4487121 0.94029087 48
-0.023566458 -1.4358624 0.93513042 21
-0.12020738 -1.4518394 0.92840874 10
-2.2924445 -2.6172304 0.57867503 7
0.12108485 -1.4462879 0.93817365 55
0.22338544 -1.4457545 0.94021147 100
0.21476276 -1.4272342 0.94301337 100
0.036478635 -1.4514852 0.93491215 31
-2.357547 -2.6073298 0.57231522 13
-2.3709016 -2.6020272 0.57135552 12
-0.044536177 -1.4549893 0.93134344 16
0.062060591 -1.4303554 0.9390192 32
-2.3641653 -1.3357484 0.68897897 66
-2.5155082 -1.9010192 0.62305033 67
-2.3686581 -1.5810876 0.66989195 65
-0.15839493 -1.4330891 0.92928702 10
0.035533126 -1.433139 0.93772614 27
0.31889904 -1.4538103 0.93973589 100
-0.18694687 -1.4334824 0.92767781 10
0.34934792 -1.4537945 0.93978369 100
-2.5001969 -1.920252 0.62338763 70
0.25950345 -1.4282693 0.94339651 100
0.082921945 -1.4261335 0.94030333 46
0.28918144 -1.4294952 0.94344318 100
-0.23403186 -1.4516187 0.92228544 10
-2.5011077 -2.2237408 0.59492141 75
-2.2634549 -2.6238158 0.58122367 6
-2.3867815 -1.5536809 0.66955006 66
0.36405584 -1.429848 0.94356078 100
0.17165342 -1.4508239 0.93856597 85
-2.5220351 -1.993059 0.61396879 81
-2.418504 -2.5748041 0.56877732 1
-2.3272269 -2.5960181 0.57705563 13
-2.4983697 -1.9334741 0.6224522 68
-2.4094996 -2.5843964 0.56879163 4
-2.4274156 -2.4950788 0.57627052 3
-2.2708919 -2.649771 0.57745808 6
-2.4434154 -2.5449903 0.56905043 3
-2.3899624 -2.6021211 0.56913555 11
-2.4537461 -2.5012553 0.57247484 3
-2.4392903 -2.4192367 0.58282053 4
-2.5164189 -2.2680783 0.58864081 78
-2.4580367 -2.4875672 0.5734064 3
-2.4201498 -2.506032 0.57596922 3
-2.4323123 -2.4302058 0.58251888 4
-2.462266 -2.4738791 0.57433808 4
-2.2693539 -2.6123898 0.58183992 4
-2.3849435 -1.6804508 0.65954375 65
-2.265765 -2.6630881 0.57652783 10
-2.4446738 -2.5640469 0.56685883 3
-2.4912529 1.4034964 0.77823466 70
-1.9772329 5.4797955 0.4360173 10
-2.474107 3.6252549 0.60248011 33
-2.3568215 2.1278603 0.74455118 66
-2.4728861 4.2909813 0.53592759 22
-2.4861865 1.5501953 0.77043998 66
-2.4688272 4.8158593 0.4813256 25
-1.4002563 5.2410274 0.48933217 54
-2.3619554 1.9837328 0.75478309 62
-2.4897704 1.5018467 0.77287269 66
-2.4877012 1.5638787 0.76946235 64
-2.4925737 1.3918731 0.77872032 68
-2.4737494 4.1329665 0.55201626 28
-2.4928563 1.3083951 0.78310889 59
-2.4798214 3.1535137 0.64659762 50
-2.4778786 3.4524405 0.61880827 43
-2.4714966 4.4897575 0.51545167 24
-2.4844096 1.7194616 0.76020223 67
-2.4907966 1.4397221 0.77628469 68
-2.4808834 1.8256761 0.75362468 70
-2.4936659 1.320774 0.78237617 61
-2.4858325 1.7474587 0.75824952 66
-2.4687836 4.5917478 0.50497305 24
-2.4770191 3.308583 0.63246197 40
-2.4743478 3.7050858 0.59467852 31
-2.4830813 1.7593931 0.75776613 66
-2.4870889 1.5893832 0.76800036 71
-2.4712903 4.454741 0.51910877 24
-2.4835134 2.6197808 0.6931569 64
-2.479533 3.089644 0.65244913 50
-2.480556 3.0456111 0.65634829 53
-2.4724662 4.1002073 0.55543131 28
-2.4793425 2.5804164 0.69682038 66
-1.3179595 5.2363334 0.49311766 44
-2.4840531 2.7116292 0.68535453 58
-2.4740181 3.6779046 0.59736067 33
-2.4805641 1.8115426 0.75460035 66
-2.4896905 1.5271877 0.77140993 64
-2.3575826 2.0687857 0.74893856 70
-2.3584764 2.0545623 0.74991232 63
-2.4892395 1.3670419 0.78043222 61
-2.4748025 3.8972566 0.57566214 35
-2.4734766 3.7554281 0.58980399 29
-2.4776947 3.2399855 0.63879955 42
-2.4715629 4.3533707 0.52959114 26
-2.4802866 3.3836231 0.62514311 45
-2.4828856 1.652433 0.7645933 70
-2.4874778 1.6287595 0.76556158 70
-2.3628843 2.0290284 0.7513684 63
-2.3529148 2.1708899 0.74163157 63
-2.4912472 1.464888 0.77482104 68
-2.4844623 2.8469009 0.67365164 63
-1.4182562 5.2371287 0.48906025 50
-2.4768887 3.0651736 0.65489119 52
-1.9994576 5.4789991 0.43500742 6
-2.4785564 3.5029438 0.61393142 40
-1.8925092 5.4890695 0.43907502 6
-2.480026 3.360575 0.62733757 49
-2.4812829 2.8052328 0.67755729 61
-2.4844229 2.6940393 0.68681675 58
-2.4714074 4.6690564 0.49668017 24
-2.4772353 3.2166986 0.64099437 47
-2.4715853 4.0381284 0.56177115 28
-2.4681585 4.554884 0.50887454 24
-1.461203 5.2435484 0.48655531 46
-2.4817717 1.7313671 0.75971866 66
-2.4886367 1.6425915 0.76458448 68
-2.4756498 3.2836678 0.634902 39
-2.4722607 3.9795086 0.56762111 30
-2.4859719 2.7325001 0.68340117 55
-2.4713147 4.1920619 0.54616916 28
-2.359354 1.9401 0.75820047 63
-2.0238822 5.4858203 0.43301901 6
-2.4737327 3.5220542 0.61247617 38
-1.4377987 5.2347412 0.48854217 48
-1.9146652 5.4886112 0.43806526 10
-1.5007844 5.2424493 0.48503068 50
-2.4778776 2.8812025 0.67122388 58
-2.4870002 1.7755598 0.75629717 66
-2.365757 1.9583449 0.75624013 62
-1.4820913 5.2447534 0.48554745 48
-2.066103 5.4783163 0.43173411 4
-2.3524821 2.139713 0.74407029 62
-2.4802256 3.337074 0.62953144 39
-2.4768584 2.9401348 0.66610581 53
-2.4810908 1.6119963 0.76727808 76
-2.4818017 1.6776632 0.7631321 67
-2.4683549 4.5197692 0.5125311 24
-2.4805167 1.6642756 0.76410931 67
-2.4800563 2.652513 0.69072431 64
-2.4711945 3.9486508 0.57079196 30
-2.4864008 2.6399617 0.69120204 64
-2.48176 3.1357968 0.64805734 50
-2.47806 2.5964642 0.69560337 64
-2.4844625 1.4864259 0.77434385 66
-2.1586535 5.4826503 0.42647025 8
-2.4843519 2.9274459 0.66658169 53
-2.4819133 3.2678254 0.63586748 42
-2.3482859 2.229763 0.73749405 66
-2.485177 1.4244821 0.77775627 64
-2.4758344 4.2629247 0.53860474 22
-2.4748096 3.4241879 0.62173849 45
-2.4722438 3.7265766 0.59273142 33
-2.4962194 1.3340209 0.78139693 63
-2.4684131 4.3836946 0.52667063 26
-2.4820411 3.1141701 0.65000731 52
-2.4770555 4.1690764 0.54811049 30
-2.4874887 1.7896485 0.7553212 66
-2.4903946 1.7096134 0.76019305 66
-1.3611856 5.2454515 0.49036834 42
-2.3484383 2.1984007 0.73993188 60
-2.3566086 1.9943125 0.75454754 66
-2.476362 2.9789269 0.66269338 50
-2.4699023 3.6460507 0.60078013 33
-2.47679 2.8600433 0.67317599 63
-2.4850476 1.352885 0.78165781 64
-2.4753361 3.1919649 0.64343524 48
-1.9349298 5.4888573 0.43705848 8
-2.3534827 2.0805988 0.74845725 62
-2.4853985 2.5679078 0.69729859 69
-2.474776 2.958566 0.66464627 50
-2.4825995 1.4728998 0.77532196 64
-2.4724803 4.8985553 0.47229984 23
-2.4808576 1.5351328 0.77191108 68
-2.4781504 2.7632499 0.68146294 57
-2.4773412 3.8439052 0.5807777 33
-2.3468699 2.212805 0.73895907 64
-2.3733664 1.9067469 0.75915408 65
-2.4950042 1.5173231 0.77140176 68
-2.0422273 5.4757342 0.43323413 6
-2.4926195 1.5795279 0.7679919 76
-2.4698114 3.7779574 0.58785939 28
-2.4974153 1.3819991 0.77871293 66
-2.3685191 1.9747831 0.75477296 67
-1.8657255 5.4806132 0.44131091 6
-2.3634932 2.1193974 0.74454087 65
-2.4732962 4.6354637 0.5000903 24
-2.1170835 5.4926682 0.42751029 6
-2.367214 2.0463514 0.74965501 66
-2.4857619 3.0299566 0.65731543 50
-2.3526585 2.2493072 0.73553687 66
-2.4874313 2.5509007 0.69851446 67
-1.3008504 5.2458596 0.4926568 44
-2.4862647 2.9090393 0.66804153 55
-2.4815519 2.5277753 0.70096153 66
-2.3540509 2.0077233 0.75382006 65
-2.4681089 3.9167242 0.57420981 30
-2.4711461 3.5696645 0.60809189 38
-2.4788365 4.0185528 0.56322265 26
-2.4669132 4.4152403 0.52350372 24
-2.4929421 1.6977018 0.76067674 67
-2.4654982 4.9664488 0.46548477 23
-2.3480926 2.1515608 0.74358946 63
-2.3646157 2.1050861 0.74551439 67
-2.4769516 2.781426 0.68000197 57
-2.4780946 4.3302321 0.53153133 24
-2.4745357 1.7952085 0.75631636 67
-2.4653661 4.7696013 0.48645058 22
-1.9510179 5.4735756 0.43800846 8
-2.4652531 4.6958718 0.49425188 22
-2.4790616 3.8745785 0.57760578 33
-2.4683781 3.8037024 0.58542371 29
-2.4727454 3.1677735 0.64587718 47
-2.3634572 1.9138868 0.75965697 63
-2.4740863 2.9974101 0.6612342 53
-2.4844606 1.842006 0.75215626 68
-2.4676428 4.2183647 0.54373699 26
-2.4763463 1.596279 0.76874834 71
-2.470042 3.5427289 0.61077541 36
-2.5005069 1.3481541 0.78017116 64
-2.4906189 2.7561905 0.68095601 58
-2.3564241 1.9237593 0.75966781 65
-2.4664838 4.0609713 0.55982882 28
-2.4915795 2.8342347 0.67412823 63
-2.4709861 3.3964872 0.62466997 43
-2.4792395 1.4097899 0.77922839 64
-2.4998734 1.4568337 0.77432024 66
-2.4748192 4.8651533 0.47570917 23
-1.8421838 5.4771905 0.44281039 4
-2.4830825 3.6107364 0.60319757 35
-2.4736586 2.6650527 0.69024658 64
-1.3838023 5.2527089 0.48862657 46
-2.4638109 4.7290473 0.49084112 22
-2.3637917 2.1952908 0.73868912 68
-2.4632075 4.9221292 0.470364 23
-2.4857748 3.4869318 0.6148954 42
-2.4813285 1.8540157 0.75167346 85
-2.4874671 1.2820604 0.7850678 37
-2.1427612 5.4985576 0.42551997 6
-2.4751084 2.5052123 0.70340949 67
-1.3332093 5.2210803 0.49431261 46
-2.1860533 5.4919562 0.42398968 8
-2.0828037 5.4644575 0.43243942 4
-2.4781468 1.8660259 0.75119072 123
-2.4775627 1.2894171 0.7858144 46
-2.20771 5.4885297 0.42322454 6
0.18259735 5.2245417 0.52789158 86
1.7070177 3.0673308 0.75944453 50
0.32762489 5.2227607 0.52860689 80
0.20083424 5.2250385 0.52792019 80
-1.1230108 5.2362242 0.50024843 36
-0.16394663 5.2288837 0.52417874 66
1.8270223 2.9195921 0.76962936 56
-0.089497603 5.229465 0.52502686 74
0.1094958 5.2258849 0.52728927 80
0.90901005 5.2249684 0.52537626 74
0.037016269 5.2302198 0.52620047 80
1.6490899 3.1400228 0.75398988 50
1.8043393 2.9510608 0.76739943 62
0.00050967501 5.2280197 0.52614319 80
1.6911633 3.089565 0.75771302 42
1.7568395 3.0094342 0.7634238 48
1.1126258 5.1182208 0.53544778 74
1.5884928 3.9149716 0.6671077 9
1.6101242 3.1689091 0.75246567 55
1.7160805 3.0588999 0.75994641 47
-0.62583226 5.1338072 0.52711141 66
1.8186184 2.928328 0.7691285 56
1.7975473 2.9632955 0.76641357 50
-0.27243662 5.2254076 0.5230335 66
1.7808129 2.980334 0.76541197 50
1.621178 3.164434 0.75248307 53
-1.1598846 5.2340808 0.49921563 38
-1.2581767 5.234076 0.49564895 38
1.6647382 3.116159 0.75596476 51
1.7307588 3.0347486 0.76191992 46
0.23647653 5.2218533 0.52846372 82
-0.10758261 5.2259769 0.52524227 74
0.88901436 5.2191443 0.52631998 76
-0.23728448 5.2333612 0.52260101 64
1.6411659 3.1519296 0.75300217 48
-0.56926847 5.1279368 0.52915025 68
0.29113269 5.2265592 0.52806199 86
0.21807481 5.2294202 0.52745974 86
-0.82654458 5.1247582 0.52289659 62
0.60821456 4.2431941 0.648256 19
-1.182366 5.2400112 0.49771777 38
-0.071547754 5.23487 0.52456743 80
-1.0239283 5.2320342 0.50406027 42
-1.2023221 5.2404008 0.49695519 38
0.27298003 5.2184381 0.52900857 80
0.25476447 5.2181931 0.52897996 80
1.8101715 2.937041 0.76862758 55
-1.2185628 5.2314711 0.49741736 38
-1.0853823 5.2424364 0.50079489 38
1.7738463 2.9925222 0.76442581 51
-0.18180662 5.2231627 0.5246383 66
-0.14605314 5.2345438 0.52371919 66
1.785448 2.9648221 0.766882 51
-0.053271983 5.2362533 0.5245961 74
0.055696096 5.2232957 0.52720487 82
0.57732457 4.223207 0.6508891 30
-0.60790718 5.1371269 0.52713948 68
-0.290672 5.2232585 0.52300489 66
0.093262382 5.2211881 0.52775133 82
0.14584291 5.2312922 0.52685881 80
-0.6616509 5.1269813 0.52705526 66
-1.1052489 5.2431927 0.50003248 38
1.5942862 4.1253309 0.64225107 6
1.1476663 5.1027169 0.53672183 76
-0.30895728 5.2290397 0.52200109 62
0.51889807 4.2221966 0.65128481 32
1.1286526 5.1037035 0.53693563 72
0.075038336 5.2203159 0.52772272 82
1.8589839 2.860343 0.77431178 25
-0.017471883 5.2228613 0.52660251 78
1.6771805 3.1151388 0.75549692 47
1.7267499 3.0540557 0.75996327 47
1.633726 3.1635926 0.75201535 51
-0.12656114 5.2223449 0.52545631 70
-0.21901172 5.2353239 0.52262968 66
-0.64226311 5.1226254 0.52806079 66
1.6538526 3.1207864 0.75594759 47
-1.0665612 5.2454419 0.50106812 38
-0.036819641 5.2374444 0.5246219 76
1.7446404 3.0107887 0.76389211 48
1.561294 3.1732478 0.75409502 43
0.018284734 5.2370772 0.52519596 78
-0.3832497 5.2293863 0.52066576 38
0.53289855 4.221559 0.65130681 26
-0.58996934 5.1403832 0.52716756 68
1.5377041 3.1780281 0.75454539 46
-0.73183995 5.1108227 0.52718914 80
1.6864609 3.1067905 0.75599909 47
0.16461723 5.2160454 0.52883846 80
-0.80864733 5.1287789 0.52292466 64
-0.25599277 5.23528 0.52208418 64
1.6946925 3.0684762 0.75991267 43
1.1654733 5.0998454 0.53674984 66
-1.0421835 5.2272625 0.50403172 38
-1.1378404 5.2258887 0.50095659 38
-0.7921049 5.130404 0.52319431 70
-0.19872218 5.2174735 0.52509934 68
0.59218657 4.2243133 0.65066862 32
1.8472776 2.8867447 0.7720992 55
1.7690464 3.0080311 0.76295555 51
0.30934134 5.2346172 0.52711552 86
-0.69976836 5.1315808 0.5255329 66
-0.55068988 5.1271467 0.52966696 66
1.592241 4.0678062 0.64907366 8
-0.84620446 5.1284151 0.5218907 56
-0.71847194 5.1318312 0.52501607 68
0.12727171 5.2385378 0.52585459 86
-1.2356728 5.2222176 0.49787816 40
1.7341213 3.015696 0.76387548 48
0.50480175 4.2386847 0.64931244 21
1.5473701 3.1700981 0.75504822 47
-0.77418941 5.1343036 0.52322239 60
1.5970923 4.1867194 0.63494205 7
1.58841 4.0107856 0.65589356 8
1.8536317 2.8744242 0.7730844 37
-0.32944512 5.2444882 0.51977497 66
1.8399357 2.9196541 0.7689184 51
0.56322664 4.2359242 0.64940423 17
1.5266033 3.1822119 0.75452787 50
1.5825416 3.8501434 0.67489934 9
1.5804436 3.8007128 0.68074673 9
1.5770519 5.2136049 0.51375121 64
1.5856122 3.9533918 0.66271514 8
-0.68261927 5.1390533 0.52507228 66
1.8473679 2.9090955 0.76966155 53
-0.53368258 5.1300521 0.5296936 70
1.5836926 3.7661932 0.68465239 9
-0.4719798 5.2064037 0.52174556 110
-0.40315801 5.2386446 0.51917183 70
-0.86771137 5.1397276 0.51990682 56
1.6064111 3.1917844 0.75002193 57
1.5952619 3.1962078 0.75000435 53
1.5833746 3.1987431 0.75022936 43
1.557029 5.2101822 0.51469475 64
1.5357038 5.2008805 0.51636767 60
-1.0076233 5.2444358 0.50311065 44
-0.51544607 5.1310911 0.52996594 68
1.8520283 2.8235316 0.77868897 18
-0.49784559 5.1359844 0.52974975 70
-0.94367307 5.2215624 0.50784254 46
-0.4402914 5.2372985 0.51862609 82
-0.88564533 5.1355009 0.51987875 56
-0.9883396 5.2452369 0.50362837 44
1.0577054 5.1042213 0.53804296 69
1.518891 5.2067723 0.51609743 68
1.5654544 4.3552132 0.61612099 47
-0.42370349 5.2517576 0.51718938 76
-0.34135699 5.1929269 0.52585083 24
-0.96810824 5.2421155 0.50463516 46
-0.47867179 5.1310148 0.53075492 72
1.0737387 5.1019216 0.53806818 63
-0.45854431 5.2405901 0.51786613 84
1.0426068 5.12638 0.53558141 64
1.6051567 4.2672014 0.62520349 10
1.5515389 4.3611846 0.61585528 52
-0.90216774 5.125423 0.52058423 50
1.5132798 3.1787059 0.7554819 47
1.5867524 3.7274966 0.68904531 9
1.8575976 2.8115001 0.77967286 29
1.58377 3.676115 0.69513512 9
1.094463 5.1189446 0.53566295 74
1.6065099 4.3268414 0.61813599 10
1.4924622 5.1740713 0.52068758 58
1.5866678 4.3718786 0.61347282 100
0.94411081 5.2249827 0.52494395 76
0.87079263 5.2210503 0.52629137 70
1.5035453 3.1865315 0.75497907 50
0.92814291 5.2308192 0.52443123 76
-0.7332074 5.0293975 0.53693819 100
1.0307013 5.1800947 0.52922434 24
0.96234715 5.2228212 0.52497262 78
1.5817488 3.6306496 0.70049518 9
0.9805733 5.2205963 0.52500129 70
1.4602921 5.1141081 0.52868176 66
0.48948976 4.2055049 0.65343261 30
1.5794134 3.5831461 0.7060985 9
1.5112544 3.3125045 0.74012047 1
1.8355954 2.4948661 0.81474328 5
1.8531157 2.7800348 0.78332257 42
1.0010539 5.2360306 0.52283949 14
1.4916164 3.1866615 0.75544775 41
1.742112 2.303118 0.84068048 7
1.5363081 4.3654084 0.61583132 50
1.8580185 2.7660208 0.78454924 42
1.7313865 2.2677698 0.84505171 32
1.484516 3.2018929 0.75397384 15
0.85315382 5.2288184 0.52553225 68
1.4399103 5.1063676 0.53011221 62
0.47527796 4.2199106 0.65170389 35
1.8289139 2.5035026 0.8142451 27
1.5189792 4.361917 0.61677909 49
1.4204235 5.1024303 0.5310567 66
0.83452052 5.2266464 0.52599049 60
1.8252277 2.5172458 0.81302035 29
1.441476 1.1896044 0.97209406 87
1.3337635 1.2536942 0.97460473 91
1.3298978 1.2668887 0.97362339 94
10.559371 5.2071977 -0.22285898 1
2.8300996 1.8887655 0.7895062 25
11.123447 4.06145 -0.2285306 1
10.051292 6.1066875 -0.22391911 1
2.794802 1.8892263 0.79286313 24
1.4262813 1.1982106 0.97255749 89
1.4961766 1.1895421 0.96754891 48
1.3372777 1.2406827 0.97558546 89
1.2498198 1.3380222 0.97227746 89
1.4079162 1.2120562 0.97277206 94
2.8108575 1.8878421 0.79142588 27
1.3741119 1.2151816 0.97515631 89
1.4550009 1.1878067 0.97114038 89
1.3210659 1.3013116 0.97092772 80
2.938879 1.8886607 0.77895254 24
11.388077 3.1380422 -0.22346492 1
1.448131 1.1888192 0.97161704 89
2.5169032 1.8634353 0.82094467 7
10.615116 5.1007304 -0.223013 1
1.4304574 1.194388 0.9725641 94
11.476328 2.8729677 -0.22527094 1
1.6229635 1.239292 0.95239145 63
11.490136 2.8350403 -0.22573598 1
1.4346195 1.1905512 0.97257072 84
1.5072868 1.192549 0.96634758 47
2.8845224 1.8889468 0.7842294 27
2.8455446 1.8880687 0.78806806 27
11.203796 3.7933245 -0.22644897 1
1.4108179 1.2068173 0.97302049 87
2.5160813 1.8766015 0.81996816 6
11.452675 2.9477186 -0.224822 1
11.35461 3.2536116 -0.22351988 1
10.370252 5.6037736 -0.22560163 1
1.4591401 1.1838844 0.97114694 82
1.2558062 1.3169701 0.97399348 100
2.914633 1.8848647 0.78159559 25
1.4152342 1.2028596 0.97302753 87
10.114709 6.0046058 -0.22381742 1
1.3329407 1.2441797 0.97557855 89
1.4194262 1.1990759 0.97303414 94
3.0055878 1.8806654 0.772964 26
11.163477 3.9069338 -0.22651465 1
2.9551258 1.8865128 0.77751565 27
1.3254691 1.27036 0.97361636 94
1.3441021 1.2222749 0.97681522 100
11.285671 3.5242167 -0.22533996 1
11.377057 3.1766026 -0.22348304 1
10.449022 5.4184108 -0.2230366 1
10.873296 4.6918321 -0.2299114 1
11.158612 3.9436486 -0.22749801 1
1.322633 1.2851202 0.97239292 80
1.3189079 1.3079222 0.97043669 86
11.346991 3.2931974 -0.2240202 1
2.9876683 1.8819437 0.77464199 27
1.6645722 1.2531599 0.94758171 100
10.134566 5.9721441 -0.22378559 1
11.216971 3.7553654 -0.22642751 1
1.2661285 1.3121157 0.97376609 100
2.7568169 1.8864248 0.79670334 27
11.649962 2.1727023 -0.22693379 1
1.2477177 1.3250117 0.97373688 94
1.3367995 1.2308401 0.97655982 99
10.172344 5.9481759 -0.22616322 1
1.3280146 1.3010099 0.97045112 77
11.446154 2.9875369 -0.22532065 1
1.2592528 1.3121202 0.97424275 100
2.8712158 1.8935356 0.78518337 24
11.534053 2.6390135 -0.22517546 1
1.2842593 1.3088645 0.97281963 100
1.2489367 1.3169223 0.9744702 99
1.2993773 1.319954 0.97064954 100
1.406728 1.2184056 0.97228265 100
11.190489 3.831243 -0.22647066 1
1.4795698 1.1807747 0.96971667 68
2.8926997 1.8812071 0.78399867 23
2.9697735 1.883119 0.77631998 26
10.929686 4.5429597 -0.22884472 1
1.2704746 1.3090152 0.97377294 100
1.5268062 1.1955627 0.96442825 63
1.316715 1.3145338 0.96994561 100
1.5114428 1.1884435 0.96635419 60
11.022063 4.3633723 -0.23064585 1
1.2451439 1.3412132 0.97227007 87
1.3392466 1.2696258 0.97266304 91
10.293236 5.7910333 -0.22889502 1
1.3885092 1.2237507 0.97322887 100
1.3511704 1.2396034 0.97463232 100
11.431297 3.0271978 -0.22485729 1
11.611022 2.2879148 -0.22504742 1
1.5394186 1.1997898 0.96298558 57
1.4024687 1.2221448 0.97227585 100
1.4685507 1.1776229 0.97091812 75
1.3185954 1.2706779 0.97409308 96
2.7881925 1.8978053 0.79285252 24
11.177051 3.8691092 -0.22649248 1
11.383669 3.0951598 -0.22152109 1
10.423051 5.541225 -0.22746725 1
1.5534875 1.2053378 0.96130139 53
1.3608583 1.2082223 0.97684181 100
11.505462 2.673471 -0.22278364 1
1.6457375 1.252828 0.94925833 70
1.3540722 1.2087686 0.97731864 100
11.050768 4.292398 -0.23059936 1
10.631973 5.0666146 -0.22298582 1
1.6029036 1.2371817 0.95430988 48
1.6601899 1.2577989 0.94757473 100
1.3472953 1.2092819 0.97779548 100
1.5659813 1.209627 0.95985848 37
11.700344 2.020323 -0.22953255 1
10.558791 5.2519283 -0.22529824 1
1.3407376 1.2095875 0.97827262 100
10.485407 5.3923898 -0.22541638 1
11.350651 3.2106857 -0.22157533 1
1.3992841 1.2275542 0.972027 100
11.490381 2.7523346 -0.22329636 1
10.234104 5.8915381 -0.22898991 1
1.4563988 1.1727787 0.97236156 78
11.622832 2.2493188 -0.22551544 1
10.503234 5.3586979 -0.22538777 1
10.890435 4.6136322 -0.22793289 1
2.7377174 1.8850725 0.79862326 28
11.447023 2.9068134 -0.2228802 1
10.372382 5.5590954 -0.22315986 1
11.67212 1.9745049 -0.22518881 1
10.521876 5.3231745 -0.22535773 1
10.333328 5.6290321 -0.22322257 1
2.5021877 1.8378345 0.82433444 6
10.611452 5.1436944 -0.2249697 1
10.556214 5.1607423 -0.21993811 1
10.412575 5.4442487 -0.22065718 1
1.3145844 1.3309538 0.96847951 100
1.6243373 1.2493079 0.95141846 83
1.2680686 1.2960758 0.97523189 100
11.294834 3.4030302 -0.22191067 1
11.278986 3.4799578 -0.22291215 1
1.2382351 1.341097 0.97274673 84
11.207464 3.7096674 -0.22351666 1
1.2370986 1.349038 0.97201353 80
10.835121 4.7188258 -0.22704692 1
11.036138 4.4127564 -0.2345248 1
11.378564 3.0542688 -0.21957846 1
10.275553 5.7344122 -0.22355933 1
10.876448 4.7816882 -0.23478313 1
10.667965 4.9928031 -0.22292776 1
11.290973 3.6105208 -0.22923322 1
1.3251437 1.3354889 0.96727729 100
11.110785 4.2272091 -0.23440368 1
10.859694 4.8184524 -0.23481019 1
2.7202153 1.8848404 0.80030197 27
11.571855 2.3208392 -0.2212096 1
11.043536 4.2461896 -0.22768493 1
9.9749498 6.1530099 -0.21916516 1
11.020668 4.4500856 -0.23454984 1
10.393512 5.4793906 -0.22068782 1
10.842809 4.8551631 -0.23483749 1
10.038853 6.0517282 -0.21906264 1
11.361697 3.3816297 -0.2288738 1
10.155589 5.8913317 -0.22082599 1
11.311061 3.5747173 -0.23017581 1
11.210339 3.6640882 -0.22204871 1
11.00507 4.4873557 -0.23457511 1
10.989341 4.5245752 -0.2346005 1
10.825798 4.8918104 -0.23486491 1
10.487509 5.2601833 -0.21809824 1
11.373433 3.3431218 -0.22885461 1
11.125473 4.1895719 -0.23437984 1
10.685329 4.9567065 -0.22289975 1
10.124079 6.0575109 -0.22819109 1
11.629748 2.3739285 -0.22940703 1
11.140033 4.1518788 -0.23435624 1
11.154459 4.11414 -0.23433276 1
9.9896622 6.1150723 -0.21816631 1
10.808659 4.9284015 -0.23489256 1
2.584451 1.816238 0.81837064 1
11.007776 4.3141408 -0.2267675 1
11.717201 2.1053891 -0.23340781 1
11.607234 2.2053275 -0.22261412 1
10.791391 4.9649291 -0.23492046 1
11.724483 2.0656426 -0.23339553 1
11.709784 2.1451044 -0.23342021 1
10.877324 4.5641365 -0.22405274 1
10.845201 4.637629 -0.2241046 1
2.7120669 1.8919246 0.80053282 27
10.216743 5.7881727 -0.22072788 1
10.617476 5.0149755 -0.21862026 1
10.381957 5.7444859 -0.23533566 1
11.088887 3.9608202 -0.22029562 1
2.6930513 1.8902872 0.80245286 13
11.256371 3.432935 -0.21855934 1
11.561597 2.8115141 -0.23342283 1
11.078018 4.001596 -0.22080107 1
10.40195 5.7093782 -0.2353036 1
10.302481 5.885211 -0.23570712 1
11.317253 3.6574643 -0.23406775 1
11.506796 -2.6161869 -0.22121032 1
2.5157044 -1.6029803 0.84100068 6
10.940707 -4.5324082 -0.22937222 1
11.095402 -4.1628323 -0.22962435 1
10.994922 -4.4241457 -0.23026414 1
11.227839 -3.742157 -0.22698756 1
2.7545884 -1.4045711 0.83015972 24
10.807512 -4.8699946 -0.2315243 1
2.5192091 -1.4915502 0.8485598 40
11.842271 -0.49036679 -0.22608943 1
11.809351 -1.1675518 -0.22807725 1
2.5138867 -1.6845722 0.83514977 1
2.6785312 -1.4045757 0.83808368 29
2.5156043 -1.6264803 0.83929485 2
11.817033 -1.0894226 -0.22806676 1
2.5171916 -1.5807226 0.84246498 11
2.7951288 -1.4057777 0.82583612 26
11.488259 -2.6941156 -0.22123785 1
11.704543 1.7783332 -0.22513385 1
2.520534 -1.5036688 0.84758717 36
2.526047 -1.4850242 0.84832662 34
11.906015 0.23022749 -0.23282893 1
2.5185363 -1.5135552 0.84709674 29
11.789078 -1.2463396 -0.22664507 1
11.906749 0.18983336 -0.2328269 1
11.420711 -3.0056581 -0.22279997 1
11.200782 -3.8200076 -0.22702844 1
11.717324 -1.721416 -0.22552915 1
2.8565421 -1.4060159 0.81935161 27
10.919725 -4.6110997 -0.23086603 1
2.7310617 -1.4015712 0.83280385 28
11.76662 -1.4056503 -0.22618945 1
10.778572 -4.94104 -0.23205562 1
11.743666 -1.5222417 -0.22524817 1
11.907774 0.11106939 -0.23282368 1
11.908091 0.070669882 -0.23282237 1
11.908267 0.030269513 -0.2328213 1
11.750086 -1.5636694 -0.22669978 1
2.5105307 -1.6464641 0.83831227 2
11.908299 -0.012145465 -0.23282035 1
11.131626 -4.0904236 -0.23054393 1
2.5163059 -1.5341003 0.84587497 26
11.906164 0.30902976 -0.23307414 1
11.530887 -2.5826983 -0.22312303 1
11.694756 -1.8398708 -0.22507484 1
11.907173 0.26864013 -0.23307164 1
11.844457 -0.53071147 -0.22657283 1
2.7021952 -1.4075367 0.83543974 25
2.5177016 -1.7119982 0.83271891 1
11.685297 1.8972912 -0.22516651 1
2.8810418 -1.4068738 0.81670898 24
2.8929031 -1.4017866 0.81575257 25
11.90064 0.47257495 -0.23308618 1
11.76432 -1.3244388 -0.22473235 1
2.5228903 -1.5965233 0.8407681 9
11.902219 0.43220365 -0.23308285 1
11.907315 0.15145653 -0.23282523 1
11.903657 0.39182156 -0.23307975 1
11.8266 -0.64651865 -0.225136 1
11.784657 -1.2863165 -0.22665115 1
11.86662 -0.37047413 -0.22849114 1
2.5196714 -1.6176732 0.83954471 3
2.7090492 -1.3998529 0.83520663 29
11.759626 -1.3643287 -0.22473891 1
2.512558 -1.5428571 0.84562552 16
2.9147382 -1.4032209 0.81334949 22
2.5335448 -1.4451616 0.8502875 1
2.5278935 -1.5313981 0.84491813 26
2.5244951 -1.7672534 0.82785594 2
2.5088048 -1.7296757 0.83221781 1
2.5259211 -1.5754068 0.84199113 11
2.5120084 -1.5539126 0.84489369 10
2.5229366 -1.7786449 0.82712251 2
2.7818484 -1.4089828 0.827034 27
2.5210631 -1.7269917 0.83126205 1
11.907964 -0.088901125 -0.23281927 1
2.8239231 -1.3992555 0.82320011 27
11.865256 -0.41072714 -0.22849245 1
2.8034756 -1.3991339 0.82536161 25
2.5226157 -1.643623 0.83735627 3
11.808914 1.0259968 -0.22641678 1
11.764662 -1.4844517 -0.22716589 1
10.810021 -4.826766 -0.22957142 1
11.098742 -4.120985 -0.22815748 1
11.865327 0.55178708 -0.22924323 1
11.12725 -4.0457406 -0.2281142 1
11.524343 -2.5400887 -0.22118433 1
11.71003 1.8198882 -0.22658844 1
2.5345125 -1.4795772 0.84785235 12
10.869132 -4.6768208 -0.22850664 1
11.55033 -2.4227753 -0.22114594 1
11.017434 -4.3484912 -0.22925551 1
11.72317 -1.6410571 -0.22479053 1
11.816345 -0.68615109 -0.22417624 1
11.756355 -1.605166 -0.22815152 1
11.842974 -0.76840949 -0.22803266 1
11.898919 0.51294607 -0.23308964 1
11.183952 -3.937927 -0.22997732 1
2.5148885 -1.455359 0.85147715 2
10.885394 -4.6400185 -0.22848184 1
2.9594908 -1.4038864 0.80854499 27
2.5058529 -1.7397406 0.8317259 1
11.832009 -0.44972807 -0.22464402 1
11.746834 -1.6851513 -0.22840853 1
11.890748 0.67233515 -0.23310573 1
11.893024 0.63199157 -0.23310132 1
11.89516 0.59164041 -0.23309715 1
2.561924 -1.4306235 0.84838188 1
11.781511 -1.2051003 -0.22519524 1
11.229054 -3.7872684 -0.22893472 1
11.239279 -3.6590633 -0.22502132 1
11.845585 -0.72823215 -0.22802944 1
2.9301074 -1.3998538 0.81191111 24
11.482142 -2.6514952 -0.21929856 1
11.822901 -0.56589276 -0.22416838 1
10.813732 -4.9129853 -0.23443849 1
10.974747 -4.5030985 -0.23175664 1
2.5299325 -1.7092394 0.83176309 1
11.200007 -3.9051704 -0.23044033 1
2.5518818 -1.4461471 0.84836644 1
11.728562 -1.8045573 -0.22843476 1
2.5398657 -1.4061553 0.85224652 1
11.860509 -0.60807818 -0.22898336 1
11.126412 -4.0025244 -0.22616656 1
11.136589 -3.9634666 -0.22566397 1
2.4945467 -1.6576197 0.83901864 2
11.8732 0.35047585 -0.22922678 1
11.213572 -3.8672242 -0.23041983 1
10.988264 -4.3778524 -0.22735067 1
11.505783 -2.7396531 -0.22462173 1
10.841873 -4.7086887 -0.22708626 1
11.672593 -1.8769211 -0.22315891 1
11.785693 -1.1247728 -0.22470291 1
2.492135 -1.6444292 0.84023327 2
11.730377 -1.4395728 -0.2223459 1
11.084414 -4.2885208 -0.23402627 1
10.862927 -4.8066635 -0.23436339 1
11.679277 1.7338343 -0.22127266 1
11.74264 -1.7659879 -0.22938831 1
10.899299 -4.5583925 -0.22602434 1
10.879643 -4.7698832 -0.234338 1
11.393126 -3.4145641 -0.23355944 1
2.5135717 -1.4103594 0.85464275 1
11.099319 -4.2509704 -0.23400362 1
11.868478 -0.05236033 -0.22800739 1
2.5000889 -1.4345849 0.85437834 3
11.210755 -3.6938944 -0.22311552 1
11.6605 1.8525301 -0.22130461 1
11.11409 -4.2133784 -0.23398121 1
11.010449 -4.3022695 -0.22634251 1
11.008714 -4.4736037 -0.23414131 1
11.506015 -2.4949551 -0.21780176 1
11.755785 1.6233234 -0.22846241 1
11.403799 -3.3798048 -0.23354335 1
11.750049 1.6631818 -0.22847231 1
11.867815 0.99069411 -0.23314829 1
11.870871 0.95446074 -0.23314281 1
11.65031 -1.9138389 -0.2212431 1
11.588346 -2.4721291 -0.2269351 1
0.74602973 -1.6074039 0.96691585 10
1.2658063 -1.4818885 0.95651752 5
0.65847832 -1.6111766 0.96872836 12
1.0936856 -1.4929452 0.96550953 1
0.55423927 -1.6107142 0.97075832 12
2.5098915 -2.0351462 0.80760819 2
1.3776035 -1.47159 0.95011193 9
1.0161246 -1.5343205 0.96490109 2
1.0053957 -1.5390502 0.96488434 3
1.2292625 -1.4811096 0.95889753 3
0.99514717 -1.5456451 0.96462464 3
0.72214514 -1.6072215 0.96760952 12
0.71091598 -1.6098965 0.96759194 13
1.222302 -1.4806685 0.95937407 3
0.96290511 -1.5590563 0.96457428 6
0.77868891 -1.5739194 0.96989131 1
0.75673395 -1.6025643 0.96717632 12
1.2068919 -1.4782934 0.96056849 4
0.71653205 -1.6085689 0.96760076 13
1.2731009 -1.4819771 0.95604151 5
2.5152841 -1.8222828 0.82443029 6
0.67574632 -1.6096247 0.9685117 12
1.3976204 -1.4670013 0.94916832 12
0.70529366 -1.6112049 0.96758318 15
1.330761 -1.4798517 0.95247591 9
1.0305004 -1.5234765 0.96541095 3
0.64684361 -1.6114587 0.96895385 12
2.5173895 -2.3957326 0.77545381 17
1.0657742 -1.5024191 0.96595335 1
0.62959212 -1.6127012 0.96917051 12
0.53124398 -1.6097012 0.97120965 14
1.1249571 -1.4901032 0.96409619 2
2.5153358 -2.4616437 0.76960224 18
2.5108728 -1.9784273 0.81223959 3
2.51265 -1.9258721 0.81638485 6
2.5119982 -1.7951488 0.82686192 2
1.3701729 -1.4719807 0.95058775 9
2.5229347 -2.2403703 0.78886497 12
0.7277534 -1.6058543 0.96761835 12
0.50767487 -1.6024404 0.97239119 12
1.2804071 -1.4820329 0.95556551 4
2.5217514 -2.2081096 0.79178733 10
0.66370094 -1.6080872 0.96898025 15
0.41213685 -1.6059955 0.97272867 14
1.3627532 -1.4723369 0.95106357 10
0.59479952 -1.6126735 0.96984708 12
1.3381512 -1.4796454 0.95200002 13
2.5092444 -1.896646 0.81906003 7
1.0091621 -1.5330619 0.96537763 2
0.56604725 -1.613062 0.97028941 12
1.0727668 -1.5034159 0.96547693 1
0.60538816 -1.6068944 0.97035104 12
0.61798066 -1.6127753 0.969396 13
0.51954365 -1.6070999 0.97167867 14
1.1339048 -1.4943302 0.9631353 2
0.63448828 -1.6077548 0.96966559 12
1.241918 -1.4780428 0.95842987 3
2.5196731 -2.4151149 0.77350789 20
0.93603742 -1.5717649 0.96428865 5
2.5192091 -2.1003468 0.80128694 2
2.5128927 -2.0522578 0.80590707 1
1.4599546 -1.4650385 0.94487888 21
0.74090403 -1.6107591 0.96666414 9
0.91746974 -1.5724081 0.96499074 6
2.5089576 -2.0186725 0.80906874 2
2.50858 -1.9094672 0.8180843 7
