# .PCD v0.7 - Point Cloud Data file format
VERSION 0.7
FIELDS x y z intensity
SIZE 4 4 4 4
TYPE F F F F
COUNT 1 1 1 1
WIDTH 1369
HEIGHT 1
VIEWPOINT 0 0 0 1 0 0 0
POINTS 1369
DATA ascii
-4.3962712 4.8306928 0.33229879 46
-7.9233685 2.5910594 0.094278976 9
-6.1647048 3.6501167 0.24448101 40
-5.0544496 4.4043837 0.30690005 53
-4.0778599 5.0363998 0.34083799 48
-7.8698244 2.8298223 0.091433212 10
-7.8383541 2.9779522 0.089042231 9
-5.2665009 4.2899189 0.29486993 51
-8.0535364 1.5485805 0.10945146 100
-5.1273842 4.3678393 0.30264267 52
-4.9658656 4.4552717 0.31142548 46
-6.1265616 3.6852725 0.24649011 43
-7.9658709 2.3222172 0.098605081 9
-8.0618515 1.4337101 0.11090319 70
-7.856492 2.8861532 0.09072189 9
-5.2940803 4.2799549 0.29287687 49
-7.9701014 2.2921724 0.099086568 9
-5.4565439 4.1535254 0.28579971 47
-8.049943 1.4904817 0.11116438 73
-3.9548285 5.1079335 0.34419838 46
-4.0628581 5.0547662 0.34037367 48
-5.5467434 4.0981412 0.28054073 50
-8.0226278 1.9048443 0.10437422 21
-7.9166231 2.6190307 0.094045326 10
-5.8484139 3.9055843 0.26227793 51
-5.1986346 4.3321714 0.29838797 51
-7.9782352 2.23208 0.10004978 9
-7.9458141 2.5047364 0.094732925 9
-4.3716183 4.8408823 0.33355597 48
-5.5177846 4.1083798 0.28277954 49
-4.4508076 4.7851019 0.33148286 48
-7.8818579 2.7699387 0.092390582 9
-7.9266768 2.5604546 0.095005438 10
-7.9932365 2.1754441 0.10002737 10
-8.0424166 1.63894 0.10873596 24
-8.0038052 1.9941717 0.10415821 76
-4.1513233 4.981771 0.33974883 43
-4.5447793 4.7463546 0.32646134 44
-4.1032901 5.0299001 0.33933577 44
-4.1993766 4.9649916 0.33723632 50
-8.0441895 1.6089388 0.10922126 69
-4.6411495 4.6771674 0.32363036 45
-8.0558805 1.5793203 0.10847227 100
-7.3957481 3.3740857 0.12214653 6
-7.0487185 3.3771968 0.1614459 9
-5.168653 4.3382068 0.30087236 49
-7.9507046 2.4746809 0.095213339 9
-7.9123011 2.6843596 0.092100665 9
-3.0295403 5.6743159 0.3546581 48
-5.6113648 4.0498233 0.27727166 49
-7.9710808 2.3549669 0.096890017 10
-7.8871689 2.8037283 0.090431497 9
-7.4688287 3.375227 0.11374466 6
-8.0533466 1.4006369 0.11262338 77
-3.8960631 5.1464348 0.34526482 48
-8.0746117 1.1982909 0.11381297 100
-6.0094609 3.7952192 0.25227776 47
-4.2641606 4.9295082 0.3349416 51
-5.5988278 4.0716767 0.27704707 50
-4.428483 4.7961407 0.33249262 48
-3.3726606 5.4443469 0.35534272 43
-7.9955673 2.2055881 0.098804519 10
-3.9425728 5.1259565 0.34348598 42
-8.0388813 1.6670972 0.10849719 12
-5.7238817 4.0068345 0.26856497 44
-8.046627 1.6990772 0.10677819 12
-5.0436511 4.4238129 0.30642918 51
-8.0007782 2.1463606 0.10001616 10
-4.587821 4.721796 0.32468811 47
-7.8839445 2.7387314 0.093362734 9
-7.8571472 2.8542771 0.09194009 9
-5.4276872 4.1664248 0.28779462 49
-2.9322088 5.687449 0.35944173 39
-3.2050507 5.5641809 0.35462847 40
-5.6850853 4.011446 0.2722818 46
-8.0188885 1.8764038 0.10559933 34
-4.4061384 4.8070831 0.33350244 48
-3.5057297 5.3537655 0.35489187 40
-8.0407839 1.519033 0.11166577 75
-5.3855233 4.1939845 0.29005393 52
-8.0010557 1.9627788 0.10538189 100
-7.2523217 3.3747251 0.13845842 6
-7.1110768 3.3743474 0.1545233 9
-5.7716622 3.9774454 0.2655656 50
-4.5684533 4.7361903 0.32520565 45
-5.8397655 3.9303412 0.26155975 52
-5.071332 4.386797 0.30663022 50
-3.8250811 5.165801 0.34903196 43
-4.9381642 4.4634862 0.31341866 47
-5.4710069 4.133285 0.28577742 45
-5.9917407 3.8131614 0.25303641 48
-7.8333063 3.037627 0.087099001 14
-6.0580339 3.763931 0.24903356 48
-8.0428905 1.7272624 0.10653965 11
-7.9430046 2.4095659 0.098395273 10
-2.5106802 5.9139915 0.35961154 51
-6.1583872 3.673449 0.24375932 48
-5.1410422 4.3475142 0.30286542 51
-6.0363235 3.7811568 0.25028595 47
-4.4644103 4.7686453 0.33170554 47
-8.0321016 1.8165803 0.10557978 106
-8.0503492 1.3700691 0.11360376 100
-8.021512 1.8463774 0.1060832 105
-4.8378739 4.5342865 0.31723085 44
-8.0166569 2.0589893 0.10072438 10
-5.65762 4.0203834 0.27451846 50
-5.30265 4.2554965 0.29383895 47
-4.1660204 4.9631419 0.34021351 48
-7.8585501 2.9513409 0.087792322 9
-5.2562065 4.3130808 0.29415444 52
-6.2004514 3.6104164 0.2429633 42
-5.487205 4.1173191 0.28526482 47
-2.5174441 5.8754516 0.36350152 49
-7.1771259 3.372731 0.14710741 9
-6.097528 3.7000198 0.24872909 46
-8.0704803 1.4653972 0.10918288 75
-5.6303973 4.0323792 0.27651086 50
-4.937655 4.494741 0.31098148 49
-4.3495469 4.8842645 0.33163986 52
-4.2894936 4.9221077 0.33343956 55
-4.855166 4.5175095 0.3169603 45
-8.0333281 1.9380361 0.10216312 25
-3.802067 5.1740861 0.35004291 44
-5.3665094 4.243104 0.2883766 49
-4.0326309 5.0913668 0.33944544 50
-5.8596501 3.8840051 0.26250455 48
-3.22562 5.513278 0.35849705 46
-4.8012581 4.5965748 0.31558087 49
-4.2496214 4.9484439 0.33447656 55
-6.2051468 3.642864 0.24051784 42
-5.9219832 3.8324096 0.25923911 47
-4.8716192 4.501574 0.31669101 44
-5.582232 4.0922661 0.27731648 51
-7.9319944 2.6557095 0.090851709 11
-4.5054984 4.7411308 0.33042291 48
-5.0904651 4.3694448 0.30611303 50
-3.8579962 5.1365633 0.3492246 45
-4.1228714 4.9833026 0.34198704 41
-2.9520421 5.6760125 0.35941085 44
-3.5289974 5.3075686 0.35778114 40
-7.9852209 2.0204558 0.10564916 23
-4.6186414 4.7182784 0.32220241 45
-3.8380892 5.1450825 0.34998694 43
-5.3916011 4.2292571 0.28687504 53
-5.8038425 3.9679608 0.26283416 55
-5.8765397 3.8644588 0.26199088 48
-4.8888063 4.4846668 0.31642064 47
-4.0568614 5.0836034 0.33818892 51
-7.3566804 3.3890443 0.1258636 12
-4.1978726 4.9286799 0.34065172 42
-3.0177608 5.6997108 0.35272619 44
-5.2403607 4.3335433 0.29417887 52
-5.8326902 3.9561563 0.26059541 52
-8.0640049 1.7622012 0.10309343 12
-4.6451726 4.7105103 0.32045469 54
-6.4879169 3.5273197 0.21618979 53
-3.2030339 5.5183678 0.35950741 46
-3.0823817 5.6728001 0.35140654 43
-5.0373459 4.4501576 0.30497608 51
-3.0625591 5.6846924 0.35143742 46
-1.3591249 6.6194897 0.32825699 48
6.1816335 13.560714 -0.63426858 11
-2.1903875 6.0920448 0.35621104 49
-2.3590202 6.0237408 0.3554602 51
5.8448181 13.829304 -0.64942735 9
7.4705167 12.503445 -0.58664352 9
6.1389413 13.591992 -0.63579863 11
-2.1275201 6.1177197 0.35630926 49
6.8880744 13.016388 -0.60926157 9
5.9300122 13.762919 -0.64563602 11
-1.875037 6.3017735 0.34646496 53
-2.4674404 5.9324031 0.35992286 50
6.4346738 13.370298 -0.62509269 11
5.233357 14.271733 -0.6752581 9
4.8132854 14.508795 -0.68762201 11
7.3204947 12.642326 -0.59273177 9
-1.5079015 6.5363383 0.33314356 49
6.2249689 13.531128 -0.63298124 11
-1.645516 6.4959803 0.33292827 53
7.2037382 12.744483 -0.59706062 9
6.9280763 12.982818 -0.60773557 9
5.0012794 14.409799 -0.68269378 11
6.5583329 13.271549 -0.62026542 11
5.1860585 14.296263 -0.67630786 9
6.6020741 13.244365 -0.61946493 9
-1.1650964 6.8369231 0.30808309 50
-0.68073124 7.2322402 0.27154359 47
-1.6675956 6.4871321 0.3331376 54
6.2649784 13.49413 -0.63072389 11
2.1566768 11.050746 -0.2025388 36
-0.8383649 7.0916872 0.28543577 53
7.6921458 12.281871 -0.57654148 10
1.0879873 10.352674 -0.10353847 28
5.6300311 13.99575 -0.65927404 9
6.0961018 13.623137 -0.63732892 11
-1.2447681 6.7537446 0.31575933 48
1.4703854 10.519425 -0.12755902 35
6.6431308 13.211664 -0.61793739 9
7.3597507 12.609198 -0.59145075 9
4.2493348 14.864009 -0.71142656 12
-0.44948268 7.4585762 0.24777196 49
-1.9173958 6.2783289 0.34737387 51
6.7680206 13.118153 -0.61408311 9
-0.74782151 7.1642919 0.27850804 48
-0.49474901 7.4157295 0.25233278 48
5.2754469 14.24041 -0.67324144 9
-1.0160973 6.9670091 0.29637119 49
-0.90568417 7.039916 0.29020587 53
-1.9338861 6.2555013 0.34929827 45
5.5884647 14.026242 -0.66104597 9
-1.8202212 6.354269 0.34265015 51
4.907279 14.454472 -0.68454844 11
5.3647833 14.177517 -0.66944379 9
-0.028628115 7.9976158 0.18626837 42
-0.65789926 7.2534404 0.26938531 47
-2.3775833 6.0088744 0.35616258 52
5.3231564 14.217461 -0.67243487 9
-2.0128994 6.2050676 0.35161266 45
-0.54415882 7.3680587 0.25737467 46
-1.2225181 6.7650199 0.31506285 49
-0.42504591 7.4770665 0.24585997 49
-2.3416908 6.0358028 0.35499963 51
4.8627152 14.489287 -0.68705648 9
6.0115027 13.688691 -0.64087552 11
4.5375981 14.681895 -0.6987831 11
-2.454483 5.9560442 0.3579928 59
-0.56745762 7.3452444 0.25977591 47
7.0480666 12.883146 -0.60340148 9
4.4844279 14.709383 -0.7003296 11
-1.3012526 6.6789947 0.32298437 50
7.6183214 12.353452 -0.5795837 8
7.1610818 12.771882 -0.59761578 9
-1.3231214 6.6674657 0.3236815 47
-2.1474752 6.111794 0.35603431 52
7.7255626 12.250203 -0.57526964 8
-0.32644409 7.5541782 0.2377262 47
-1.5317943 6.5336857 0.33261868 49
-0.9503594 7.0137396 0.29232988 54
-1.2057747 6.7953129 0.3119199 50
6.3104358 13.469722 -0.63016456 11
5.1386547 14.320632 -0.67735773 9
-0.59035766 7.3203878 0.26242158 48
4.5855031 14.655699 -0.69724482 11
-1.7801745 6.3823462 0.34100625 52
4.1984267 14.88142 -0.71199423 12
-2.2772808 6.0639496 0.35510018 51
-2.1695459 6.1049304 0.35575607 47
6.9661136 12.956743 -0.60694414 9
5.7180209 13.940871 -0.65669721 9
4.3467798 14.813334 -0.7083475 11
7.1276155 12.816677 -0.6005941 9
5.4088774 14.144928 -0.6674239 9
7.4366093 12.545549 -0.58913499 9
-1.6245577 6.5168414 0.33125457 52
7.2763214 12.666631 -0.59280163 9
4.9534683 14.425192 -0.68276924 9
6.6797328 13.169892 -0.61519784 9
-0.99621791 6.9950814 0.29347697 53
5.8900919 13.802621 -0.6483807 11
-1.9695241 6.221302 0.35168043 47
4.7637711 14.528133 -0.68818778 9
4.3942533 14.78393 -0.70632249 11
-2.4386878 5.9765468 0.35655472 54
-1.7299738 6.4487977 0.33523396 50
5.5484433 14.06869 -0.66427833 9
5.671761 13.958642 -0.65677017 9
4.2991457 14.842587 -0.71037287 12
-0.8627823 7.0855923 0.28564134 50
6.8443718 13.042733 -0.60981816 9
7.5131283 12.476742 -0.58633226 11
6.4713454 13.327288 -0.62210935 11
-1.8930421 6.2827983 0.34789947 51
6.3961449 13.409595 -0.62759143 11
-2.4219525 5.9952073 0.35536191 51
5.5040836 14.099849 -0.6660549 9
-1.1011049 6.889174 0.30355152 46
-2.2085717 6.0758705 0.35715786 51
7.5506597 12.441308 -0.5848102 11
6.3541679 13.441539 -0.62912029 11
-1.9566655 6.2535372 0.3485314 52
-0.79130715 7.1153865 0.28355923 49
-1.7597349 6.3953476 0.34030685 51
5.4595761 14.130865 -0.6678316 9
7.4027467 12.582874 -0.5911389 9
5.9674568 13.717601 -0.64216405 11
-2.1120255 6.1410284 0.3543832 51
-0.88211566 7.0500712 0.28951147 50
-1.557386 6.5325217 0.33184728 52
-2.0844083 6.1370249 0.35613284 48
5.7623172 13.910904 -0.65516454 9
-1.2862978 6.719399 0.31861976 52
-2.0249662 6.1749973 0.35451922 49
4.6225753 14.611801 -0.69328588 11
5.8074389 13.876148 -0.65314311 9
-1.1420561 6.8459964 0.30763164 50
-2.3015957 6.0620785 0.35408708 49
4.6690302 14.581524 -0.69126242 11
7.2349057 12.696016 -0.59359843 9
-1.0837933 6.9332852 0.29870299 47
-1.3768928 6.5882611 0.33139834 47
4.1543317 14.925583 -0.71596414 10
-0.77252215 7.1585083 0.27871308 46
-0.70145196 7.1972156 0.27541158 45
-1.121031 6.8647017 0.30595812 49
1.1689456 10.456 -0.1168191 38
-1.7420781 6.4094486 0.33935931 49
7.5922008 12.407927 -0.58376926 10
6.7308745 13.158381 -0.61657971 9
0.93512428 10.161821 -0.07915695 30
6.8146544 13.097402 -0.61425334 9
-1.83163 6.3189225 0.34628901 52
-0.52321726 7.4124913 0.25228813 44
-1.1880896 6.8277721 0.30853471 50
1.4309739 10.497658 -0.12445183 37
-1.8055911 6.3843379 0.33974758 51
-0.92516774 7.0142736 0.29285696 52
-1.3963439 6.5688095 0.33307436 50
7.0103908 12.931756 -0.60663027 9
4.7141752 14.547302 -0.68875343 9
6.0485158 13.643159 -0.63740402 11
7.0772958 12.829762 -0.59921092 9
-1.4160676 6.5553641 0.33401856 48
-2.2256181 6.0600901 0.35810634 49
0.78143209 9.9094276 -0.047463253 33
-1.0419455 6.9700422 0.29535553 47
-0.27686626 7.5981817 0.23292832 46
-1.5829681 6.5354042 0.33058831 49
-0.37804765 7.5375223 0.23910789 46
7.6461854 12.302355 -0.57588273 8
-0.3007338 7.5643511 0.23679142 47
6.5094585 13.287788 -0.61961132 11
-0.63960767 7.2999797 0.26405081 46
-1.3447378 6.660008 0.32389143 50
-0.97652096 7.0250516 0.29033867 52
-1.8497767 6.3000703 0.34772334 50
5.1011362 14.374994 -0.6822924 9
-1.2591677 6.7095642 0.3206124 48
-2.4075885 6.0192442 0.35343406 49
4.4447732 14.765846 -0.70575517 11
-0.46885973 7.4185781 0.25237337 44
-0.40338778 7.5251112 0.24028699 48
-1.6063128 6.5388632 0.32933286 52
-0.72251922 7.1660619 0.27879146 45
-0.81138641 7.0820198 0.28718451 50
-1.4793025 6.5175505 0.33635738 50
5.0552578 14.404746 -0.68407124 9
-2.0400753 6.1500573 0.35668966 52
-1.6926923 6.4959707 0.331148 52
-0.61743873 7.3289266 0.26091644 52
1.2885059 10.517534 -0.12540706 31
-1.7135625 6.4831772 0.33184674 52
1.3977166 10.534995 -0.12864836 28
-2.0586452 6.1343341 0.35763583 50
-2.2428644 6.0419874 0.35929826 50
-0.1593264 7.8275175 0.20605312 39
-2.3301809 6.0669165 0.35209224 51
-1.0650517 6.9654398 0.29531935 49
1.2041181 10.437198 -0.1148134 31
-0.35424387 7.5676398 0.23573236 45
-1.4332386 6.5281363 0.33667329 49
-0.05625141 7.9903517 0.18695627 38
1.9976217 11.031627 -0.19742592 33
1.5077593 10.521317 -0.12823148 34
-1.4539151 6.5142698 0.33761606 49
1.3615164 10.544569 -0.12943657 24
-0.17819744 7.7188773 0.21918766 42
-0.20223671 7.675456 0.22426932 56
1.2486306 10.527053 -0.12620123 37
0.18432114 8.5266085 0.12248842 24
-0.2490133 7.6003714 0.23297201 46
1.3291276 10.555645 -0.1304626 31
-2.0086131 6.2597003 0.34552482 54
-0.10998512 7.9259086 0.19442914 38
-0.084706195 7.9730072 0.18886183 48
-0.13576615 7.8926044 0.19828908 46
1.1332009 10.468742 -0.11809416 31
-0.0014399929 7.9829097 0.18826126 46
2.1076472 10.992367 -0.19457121 36
0.97409624 10.272818 -0.092991188 30
0.2093745 8.7553244 0.094493076 45
0.81611675 9.90979 -0.047652557 30
2.0680277 10.990644 -0.19365843 37
-0.22247922 7.6023622 0.23301362 41
2.0287464 10.990739 -0.19298895 43
1.0539069 10.384945 -0.10724886 34
1.0150433 10.347775 -0.10243435 31
0.85194635 9.931839 -0.050521687 24
1.5401626 10.479688 -0.1235487 35
1.9793576 11.17484 -0.21451922 36
0.88849068 9.9636698 -0.054608539 28
1.6696604 10.624063 -0.14284749 16
4.1041498 14.946521 -0.71701843 12
1.575515 10.449575 -0.12032397 27
11.221118 2.5733075 -0.1864235 7
11.115227 5.9017758 -0.32217714 9
11.27954 3.918607 -0.24022587 7
10.93028 1.0183191 -0.12030752 6
8.0099545 11.949217 -0.56189865 8
11.094478 1.6829284 -0.15028687 6
11.187608 2.3245599 -0.17574652 7
11.076704 6.077127 -0.32857856 6
10.907248 6.8942871 -0.36322865 7
11.286165 3.4506948 -0.22265656 9
10.271427 8.6067219 -0.42860946 7
10.872066 0.79040784 -0.11088856 8
9.812295 9.5764418 -0.46956727 8
8.0473032 11.915689 -0.56086439 8
10.330726 8.4765224 -0.42363879 7
11.005683 6.3885412 -0.3403959 7
10.766806 0.4517926 -0.095691398 6
10.531645 8.0524025 -0.40942141 7
11.209157 2.4485464 -0.181565 7
9.3276148 10.376936 -0.50203091 8
10.392968 8.3498363 -0.41939494 7
8.1541185 11.807798 -0.55679446 8
10.411331 8.3058376 -0.41765901 7
10.894146 0.86438042 -0.11426766 6
11.266917 2.9885118 -0.2043968 10
10.815822 7.2056298 -0.37532184 7
11.127245 1.9204036 -0.15901513 7
11.122146 1.8806769 -0.15755983 7
10.824714 0.63787949 -0.10389121 6
11.063852 1.524991 -0.14375098 6
11.163845 5.6850605 -0.31478414 6
7.9401474 12.024309 -0.56517845 8
10.548752 8.0081902 -0.40768752 7
10.781032 0.4889389 -0.097619727 6
11.194292 5.4164224 -0.30303141 6
9.858077 9.4859667 -0.46559379 8
11.004111 1.3269813 -0.13335986 6
11.204905 5.2779593 -0.2966747 6
8.329751 11.627022 -0.55017775 8
11.264836 4.3074579 -0.25536868 7
10.861031 0.75079596 -0.10919876 6
10.789176 0.5259009 -0.098826364 8
8.5636873 11.362321 -0.53981179 8
11.264491 4.3514552 -0.25732002 7
9.2991095 10.417289 -0.50353891 8
11.239767 4.7413797 -0.27296612 8
10.568809 7.9663959 -0.40643641 5
7.9023504 12.057507 -0.56621343 8
11.289063 3.5781293 -0.22777314 12
9.3546476 10.335011 -0.50028139 8
10.351188 8.4369354 -0.42238709 7
8.8594408 11.024455 -0.52788454 8
10.107856 8.9515057 -0.44203517 7
10.752449 0.41474146 -0.093763188 6
10.187304 8.7806625 -0.43508229 7
11.026075 6.2997832 -0.3369498 7
11.283051 3.2013535 -0.21339412 9
11.260031 2.9456804 -0.202213 7
11.264828 4.4357896 -0.26122114 7
11.227628 4.9638944 -0.28273949 6
11.034287 6.254415 -0.33498606 6
11.271261 3.9998255 -0.24267776 7
11.290637 3.7487113 -0.23459883 9
7.793314 12.164852 -0.57053035 8
11.050268 6.211175 -0.33398506 6
11.216027 2.4900343 -0.18350501 7
10.851701 0.71324009 -0.10775037 6
10.962393 1.171368 -0.12611003 6
10.368392 8.391736 -0.42040929 7
9.1282501 10.662448 -0.51331812 8
9.1539984 10.617949 -0.51108307 8
10.515904 8.0978336 -0.41139707 7
10.90689 0.90258712 -0.11619826 6
9.0648804 10.745102 -0.51634413 8
11.152021 2.0810251 -0.16556032 7
10.473146 8.1829433 -0.41390321 7
11.164177 2.1225865 -0.16797955 7
9.9620771 9.2605305 -0.45518872 7
11.16855 2.202095 -0.17041178 7
9.8826571 9.444294 -0.46409187 8
11.279427 3.2418027 -0.21437569 7
11.277542 3.1562572 -0.2112083 7
11.212906 5.1417909 -0.29032204 6
9.6229935 9.9212074 -0.48425207 8
11.237695 4.7857957 -0.2749202 8
10.92586 0.98059368 -0.11933871 6
8.2274971 11.739752 -0.55472809 8
10.837923 7.1133623 -0.37114164 7
11.218203 5.0978918 -0.28860673 6
11.148412 5.7736092 -0.31822261 6
10.728719 7.4710402 -0.38545737 7
11.256626 4.4769225 -0.26220986 6
11.136304 2.0038071 -0.16192742 7
9.6493921 9.880064 -0.48274741 8
11.285773 3.6639805 -0.23070498 12
11.272633 4.1328707 -0.2485282 7
9.183363 10.577967 -0.50957376 8
9.2125587 10.537908 -0.50806457 8
11.243823 2.7400413 -0.19394715 9
8.3572016 11.588791 -0.54818398 8
10.969497 6.5702891 -0.3482562 7
9.5964136 9.9622917 -0.4857572 8
11.228603 4.9184875 -0.2805433 6
8.4672089 11.480255 -0.5448404 8
9.5161314 10.092755 -0.49100444 8
8.3941946 11.555838 -0.54739398 8
10.002002 9.1698761 -0.45098051 7
11.12956 1.9636022 -0.16023107 7
11.209229 5.186564 -0.29227862 6
9.2755919 10.463604 -0.50601429 10
10.970076 1.2098063 -0.12756117 6
11.026083 1.4055783 -0.13722678 6
11.176581 5.643558 -0.31378826 6
8.5003128 11.442106 -0.54332513 8
10.981344 1.2506279 -0.12949415 6
11.282764 3.1164083 -0.21046813 10
10.885345 6.9854579 -0.36716458 7
10.887057 0.82858551 -0.11305936 6
10.781543 7.2899809 -0.37781486 7
11.150951 5.7265425 -0.31578025 6
11.262039 4.2162685 -0.25098392 7
9.6742544 9.8374147 -0.48100147 8
11.251938 4.519577 -0.26368043 6
10.63153 7.7868156 -0.39902207 7
10.495455 8.14254 -0.41289255 7
11.076147 1.5650109 -0.14592619 6
9.9256153 9.355238 -0.46012279 8
8.9534941 10.908111 -0.52359086 8
10.068277 9.0441771 -0.4462429 7
10.797092 0.56474656 -0.10003324 6
11.285667 3.8777268 -0.23924036 7
10.933402 6.8063679 -0.36001715 7
10.152428 8.8670988 -0.43903872 7
7.8644104 12.090588 -0.56724864 8
10.661761 7.6969509 -0.39531669 7
9.4333115 10.2074 -0.49479303 8
11.245729 4.6064835 -0.26710436 7
10.943208 6.7578764 -0.35780713 7
8.6021318 11.331924 -0.53950697 8
9.4835072 10.127687 -0.49154398 8
11.281424 3.9602795 -0.24217351 7
10.861038 7.0755529 -0.3708609 7
8.8830595 10.983521 -0.52565295 8
9.946805 9.3106546 -0.45813856 7
9.5432558 10.051866 -0.48949859 8
11.288561 3.8336332 -0.23777242 7
10.122885 8.9026489 -0.43932959 7
10.950624 1.1325769 -0.12417777 6
11.281531 3.6201208 -0.22851701 12
11.264677 4.0863214 -0.24561484 7
11.263045 2.8648088 -0.20001312 7
10.806951 0.60194886 -0.10148104 6
9.4560537 10.168424 -0.49305031 8
9.5629292 9.9960165 -0.48605427 8
11.279361 3.7875822 -0.23486109 7
8.4270849 11.508571 -0.54490405 8
11.100101 1.7608811 -0.15247352 7
8.2639771 11.705556 -0.55369502 8
10.975436 6.5227551 -0.34580836 7
11.291303 3.3266034 -0.21874602 7
10.690457 7.5509686 -0.3874689 7
10.038098 9.0794516 -0.44653472 7
11.231814 4.828651 -0.27639279 8
8.7368822 11.185248 -0.53466135 8
10.905489 0.94150263 -0.11644514 6
11.255153 4.6554422 -0.27050301 6
9.0335722 10.775564 -0.51688141 8
8.9754448 10.85777 -0.52038676 8
11.124409 1.8442286 -0.15706809 7
10.245814 8.6452656 -0.4293817 7
10.956612 6.6136622 -0.34973976 7
11.291436 3.2849209 -0.21728261 7
11.217894 5.2374048 -0.29592213 6
7.9703312 11.979279 -0.56244892 8
8.6601734 11.249863 -0.53551418 8
10.438724 8.2693605 -0.41737136 7
10.749866 0.37823343 -0.093279079 6
8.1216879 11.852968 -0.55928379 8
10.819585 7.1544576 -0.37214634 5
11.185247 2.3636982 -0.17648239 7
11.061242 1.4864486 -0.14277931 6
8.6361361 11.29965 -0.53872174 8
10.716754 7.5147738 -0.38742682 5
11.243893 4.8796248 -0.28027484 8
9.416049 10.259906 -0.49823353 8
10.953304 6.7123232 -0.3558403 7
8.0856905 11.888389 -0.56055981 8
10.926249 6.8541036 -0.36246678 7
10.846201 0.67601824 -0.10678323 6
11.259996 4.1717305 -0.24879248 7
10.620084 7.8347363 -0.4014785 7
11.296753 3.4961417 -0.22556575 10
11.189199 5.5541749 -0.31011066 6
11.194358 5.5090666 -0.30815169 6
10.98677 1.2889732 -0.13070519 6
10.746597 7.3742042 -0.38030884 7
10.304096 8.5139389 -0.4241688 7
11.13227 5.8622184 -0.32166204 8
11.275828 3.3636637 -0.21828373 7
10.077898 8.9899569 -0.44257054 7
11.156701 2.160377 -0.16799207 7
10.223033 8.6863565 -0.43063685 7
11.245611 2.7000411 -0.19296868 9
11.297709 3.5386491 -0.22727127 10
8.300312 11.67125 -0.55266243 8
10.17741 8.8274736 -0.43802366 7
9.9084845 9.4039545 -0.46283171 8
10.958462 1.0959245 -0.12465222 6
11.193713 2.286257 -0.17549248 7
11.090498 1.7207869 -0.1505378 6
11.272877 4.3946476 -0.26023266 7
9.7799158 9.613945 -0.47010645 8
11.159221 2.0432515 -0.16554828 7
11.190499 2.4045663 -0.17818113 7
10.950369 1.0576513 -0.12320156 6
10.884773 6.9322405 -0.36350843 7
8.184269 11.763923 -0.55430907 8
10.760906 7.3298221 -0.37857911 7
10.879068 7.0343585 -0.3698568 7
9.2518587 10.509885 -0.50848979 8
9.7712564 9.67243 -0.47450849 8
9.827445 9.5250244 -0.46637377 8
11.191762 5.3184919 -0.29742727 6
9.7275553 9.7562494 -0.47823498 8
11.202878 5.4657788 -0.30667493 6
8.9237967 10.956745 -0.52607602 8
11.068439 6.1717582 -0.33346817 6
11.265407 4.5699048 -0.26756021 7
10.217894 8.7462196 -0.43503353 7
8.8012571 11.116648 -0.53260893 8
10.661434 7.6407819 -0.3911725 7
11.24722 2.9014089 -0.1993074 7
11.233365 4.691175 -0.26980659 6
8.7695885 11.15563 -0.53412193 8
8.5228167 11.38936 -0.53963274 8
10.301411 8.5719862 -0.42856166 7
11.239099 2.6177762 -0.18980856 7
11.232268 2.7776103 -0.19372256 10
11.238615 5.0588078 -0.28881761 6
7.8232069 12.118483 -0.56755751 8
11.278702 4.2666459 -0.25510237 7
10.441336 8.212759 -0.41322264 7
9.1023331 10.714566 -0.51628476 10
9.3932896 10.306448 -0.50070757 8
11.097492 1.8009831 -0.15296586 7
11.20296 2.528996 -0.18303891 7
11.104213 1.6459578 -0.15075846 9
8.8378363 11.076185 -0.53133196 8
11.193851 2.246733 -0.17451651 7
10.63007 7.7293715 -0.39463577 7
11.058497 1.447933 -0.14180787 6
11.243579 5.0149102 -0.28710279 6
11.092818 5.9384112 -0.32196936 6
9.7546463 9.7162771 -0.47697291 8
11.291665 3.0776355 -0.21020956 10
9.6838398 9.7789288 -0.47659788 8
8.9983921 10.808956 -0.51742476 8
8.6894817 11.203364 -0.53302997 8
11.305538 3.7110853 -0.23481841 7
11.149174 5.8226099 -0.32114717 8
11.256527 4.0398836 -0.24270172 7
11.192684 5.6038623 -0.31327471 6
11.287036 3.0351331 -0.20826598 12
9.9972162 9.2296152 -0.45562038 7
11.082436 5.9817162 -0.32344899 6
10.983319 6.4257464 -0.34043178 7
11.182877 5.3635235 -0.29890463 6
10.815085 7.2591271 -0.37898013 7
10.754736 7.4347129 -0.38541576 7
10.009234 9.1159878 -0.4470683 7
11.034745 6.3553133 -0.34132454 7
10.599699 7.9330516 -0.40687475 7
10.997443 1.3639661 -0.13312741 6
11.070148 6.0240498 -0.32468781 6
10.667239 7.5894165 -0.38799354 7
11.265917 3.4024203 -0.21854372 7
11.253041 2.6614671 -0.1927125 7
11.230194 2.8176227 -0.19470139 7
11.088193 6.1332741 -0.33319268 6
10.617877 7.8899198 -0.40538284 7
10.969305 6.4680362 -0.34167346 7
10.977186 6.6781349 -0.35604593 7
11.107927 1.6080657 -0.15050812 11
7.2366085 -4.961422 0.13725297 10
10.637226 0.088088751 -0.078825548 6
7.9033661 -4.2144361 0.11829798 9
5.7243528 -6.4415016 0.14733915 12
9.2672262 -2.5461855 0.043627784 10
6.0747352 -6.0467463 0.15543728 12
10.151261 -0.94696051 -0.025457459 6
9.0182686 -2.9071658 0.059331104 10
9.5697441 -2.0828967 0.022156877 10
8.3875313 -3.6360176 0.097841188 10
10.168345 -0.91397715 -0.027137356 7
6.0202799 -6.114255 0.15389065 12
9.2856159 -2.5176749 0.042437479 10
7.708251 -4.448061 0.12433366 9
7.8432961 -4.2846107 0.1203988 9
7.2824202 -4.9211478 0.13561802 10
5.6476679 -6.5330696 0.14453964 12
7.6328344 -4.5445108 0.12592344 11
8.4499969 -3.5640752 0.094525501 9
8.341464 -3.6844206 0.10045104 9
5.5018497 -6.7267776 0.13675861 12
8.4714928 -3.5396831 0.093340084 9
10.27457 -0.71251142 -0.037942961 6
6.0573778 -6.0686359 0.15492301 12
7.9806981 -4.1187081 0.11573653 9
7.8633919 -4.2613063 0.11969869 9
5.9804072 -6.159174 0.15309791 12
9.6813803 -1.9032967 0.013553781 10
6.2123451 -5.8962631 0.15711276 12
8.7609339 -3.2193646 0.075751349 10
10.66614 0.1604674 -0.082437828 8
10.463207 -0.3377862 -0.058372214 8
10.415477 -0.44190964 -0.053082779 9
5.8412971 -6.3102317 0.15044503 12
7.2603521 -4.9419103 0.13631491 11
8.980855 -2.9619312 0.061467096 11
8.0561275 -4.0229845 0.11317186 10
8.5179186 -3.4921446 0.090487048 11
7.7843051 -4.3549886 0.12225752 10
7.3263741 -4.879343 0.13422363 11
8.7390985 -3.2429998 0.077179953 10
9.6610699 -1.933093 0.015228672 8
7.9985313 -4.0938621 0.11527638 10
10.482188 -0.3029604 -0.060536817 8
5.8046942 -6.3550901 0.14916997 12
9.8786154 -1.5286901 -0.0017435121 10
10.585822 -0.057277456 -0.072565988 6
8.9143372 -3.0382137 0.065995261 10
9.9291954 -1.4356142 -0.0060530473 8
7.4782677 -4.7300744 0.12934069 9
10.376544 -0.50870782 -0.048755243 8
6.9254117 -5.2444539 0.14627604 11
8.935607 -3.0136864 0.064565703 10
8.216114 -3.828743 0.10659437 10
7.6511321 -4.5187726 0.12570779 10
9.1569147 -2.7157545 0.050526544 10
10.083924 -1.1125079 -0.019466238 7
9.9459362 -1.403843 -0.0074898768 8
6.8809133 -5.2841043 0.14742546 10
10.559406 -0.12494251 -0.069437578 8
7.8265743 -4.309804 0.12061684 10
8.1144533 -3.9486384 0.11106817 10
7.9592986 -4.1415777 0.11667828 10
9.4856939 -2.2324591 0.027877612 10
8.8516741 -3.1184609 0.069798276 10
5.6323175 -6.560842 0.14305358 12
8.3177509 -3.7073288 0.10187666 9
6.4489074 -5.67979 0.15504245 12
10.013811 -1.2759953 -0.013479428 8
6.5714736 -5.5568676 0.15425734 12
10.198225 -0.84734344 -0.030016737 7
10.532444 -0.19760379 -0.066309765 6
7.6926799 -4.4737716 0.12430982 10
7.6702452 -4.4952812 0.12524991 11
7.2128158 -4.9808297 0.13819091 10
5.6654086 -6.5083404 0.14554183 12
9.5905266 -2.0536556 0.020482702 8
6.9925013 -5.1849074 0.14443009 10
5.6143527 -6.5854888 0.14205091 12
6.7445202 -5.3995752 0.15111355 12
5.9219933 -6.2228918 0.15203242 12
8.5803137 -3.4154625 0.087171242 9
10.44411 -0.37247363 -0.05620797 8
6.1931281 -5.9181509 0.1568393 12
10.569675 -0.092912965 -0.070640758 8
10.070122 -1.1453745 -0.018268423 8
6.550559 -5.5772805 0.1544687 12
6.7709408 -5.3835411 0.14993601 11
6.1154327 -6.005096 0.15574412 12
9.1701403 -2.6860998 0.050059125 10
5.8799529 -6.2656884 0.15147988 12
6.278018 -5.8385601 0.15648358 12
8.8097916 -3.1687186 0.072414801 10
7.4518046 -4.7483702 0.13076179 9
6.6200294 -5.5199542 0.15287046 12
10.364794 -0.54322243 -0.047554329 6
9.3312702 -2.4645576 0.038851902 10
6.4265938 -5.7008095 0.15525155 12
9.7378397 -1.8124619 0.0090095233 10
9.403656 -2.3470771 0.034088299 10
9.2077131 -2.6299884 0.047679588 10
9.5414419 -2.1441662 0.023819847 8
10.099587 -1.0797818 -0.020904737 7
7.9267206 -4.1927915 0.11711554 11
6.0415869 -6.0943727 0.15392368 12
6.8417201 -5.3260264 0.14785235 10
9.4992228 -2.2018917 0.027167005 8
5.8255453 -6.3344569 0.14944594 12
7.3011823 -4.898006 0.13540308 10
8.8681068 -3.0907419 0.069092318 10
8.6916647 -3.2935908 0.080275103 11
9.1112337 -2.7689126 0.053868219 11
7.5340748 -4.6593237 0.12845175 9
9.7480106 -1.7803634 0.0085374545 10
7.8011804 -4.3299522 0.12203984 9
8.3603373 -3.6575179 0.099748775 9
5.7081771 -6.4679112 0.14609568 12
10.179386 -0.88035107 -0.028095679 7
8.6105566 -3.3941896 0.084780857 11
5.9463439 -6.206296 0.15158288 11
8.1006231 -3.9757693 0.11104707 9
7.5814991 -4.6185479 0.12633185 10
5.8645992 -6.2924638 0.1502376 12
8.9949036 -2.9330041 0.061000988 10
7.0348387 -5.1431317 0.14352088 10
8.8980713 -3.0661345 0.066701457 10
9.8540049 -1.5929829 -7.4701311e-05 8
8.6548986 -3.3430233 0.082168385 11
9.7974119 -1.6872654 0.0047132205 8
7.4168367 -4.7968283 0.13095169 11
7.7690587 -4.3809652 0.12223415 10
7.0121317 -5.1628475 0.1442167 11
6.0056362 -6.1413574 0.15264969 11
7.5536375 -4.6363082 0.12799458 11
5.7404027 -6.415062 0.14858262 12
6.5908318 -5.5350642 0.15428726 12
10.116761 -1.012607 -0.022097902 8
6.9545836 -5.2300315 0.14461522 9
5.3904309 -6.8750949 0.13024954 12
8.3029642 -3.7343285 0.10209768 9
6.6544552 -5.4744449 0.15341108 12
7.1010265 -5.0822277 0.14167361 10
6.302628 -5.8219352 0.15579049 12
8.8338356 -3.1439342 0.070745751 10
9.9084263 -1.4666936 -0.0041353274 8
10.65671 0.12428168 -0.081233099 8
5.6893601 -6.4912224 0.14533548 12
9.6131592 -2.0247228 0.018567605 10
10.302965 -0.64637429 -0.040824488 9
9.5165119 -2.1721799 0.025974913 8
8.5337152 -3.4651062 0.090023801 10
8.1489391 -3.8977697 0.11014633 9
6.8117657 -5.3374743 0.14975552 11
6.7885103 -5.3562503 0.15045039 11
9.9850025 -1.3408087 -0.011086063 8
7.7212558 -4.4225669 0.12459724 10
7.363543 -4.8326592 0.13379352 10
5.5240855 -6.707128 0.13703685 12
9.7236633 -1.8437368 0.0099629592 8
6.6979971 -5.4329472 0.15274732 11
8.4236116 -3.5845351 0.096434399 10
9.7937193 -1.7189929 0.0044643115 8
10.724416 0.30651316 -0.089905098 6
8.0250568 -4.0735917 0.1136115 10
9.6201687 -1.9923248 0.018577976 8
6.5369468 -5.6042657 0.15347295 12
9.0841303 -2.8276787 0.054801747 11
10.284919 -0.67834854 -0.038902357 9
6.3808889 -5.7377334 0.15615551 12
10.130115 -0.97944528 -0.023296194 7
8.4146719 -3.6143718 0.095933482 9
9.3417339 -2.4336586 0.038623974 10
5.3158693 -6.9757118 0.12550347 12
8.12819 -3.9214561 0.11108916 11
7.1443238 -5.0407681 0.14052205 9
6.8664355 -5.30829 0.14691584 11
7.5046897 -4.7116523 0.12791924 9
9.0666571 -2.8557324 0.055749819 10
7.6219726 -4.573122 0.12517564 11
10.505015 -0.26811084 -0.063182786 8
7.5244217 -4.6887631 0.12746219 10
5.4359269 -6.8364515 0.13080756 12
9.8895178 -1.4979533 -0.0024581719 10
5.5888619 -6.6007705 0.14249878 12
6.1447306 -5.951807 0.15798275 12
10.669486 0.19660226 -0.082920626 8
6.3565183 -5.7546878 0.15684883 11
9.9876547 -1.3068464 -0.010838823 8
9.3601885 -2.4031818 0.037433669 10
7.3401003 -4.8526454 0.13473217 11
9.8249006 -1.6221856 0.0028051566 8
5.4783392 -6.7447724 0.13672201 12
6.5188174 -5.6272178 0.15320127 12
9.1435909 -2.7453496 0.050993726 10
10.42291 -0.40696147 -0.053803161 6
6.6317754 -5.4914584 0.15410702 12
6.8977699 -5.2599778 0.14769535 11
10.682631 0.23299076 -0.08460696 6
9.5449982 -2.111131 0.024312181 8
10.209037 -0.81355822 -0.030975418 7
7.6042857 -4.5974727 0.12539224 11
7.9343457 -4.1624479 0.11810188 10
7.4269457 -4.7676492 0.13194184 11
5.4073048 -6.8478346 0.13173787 12
10.713511 0.2699379 -0.08845897 6
10.552954 -0.16054092 -0.068715766 6
8.1866579 -3.8483632 0.10874216 9
8.5020304 -3.5191188 0.090950176 10
7.092947 -5.1094446 0.14044277 12
9.2981777 -2.4874747 0.041968986 10
5.5500031 -6.6466637 0.14097624 12
10.099349 -1.0452648 -0.020418363 7
5.4442482 -6.7979751 0.13398843 12
10.613646 0.05200338 -0.075937107 6
10.044381 -1.1767253 -0.015627103 8
5.3448281 -6.964725 0.12457375 12
5.4607558 -6.7706013 0.13547628 12
10.601856 0.014310537 -0.07449241 8
9.4739895 -2.2634358 0.028347416 10
6.2258587 -5.8687034 0.15835206 12
6.327188 -5.8052149 0.15509765 12
5.2949386 -6.9979119 0.12473993 12
5.5682487 -6.6221876 0.14197926 12
6.1012974 -6.0324111 0.15450375 12
9.0490961 -2.8837028 0.05669789 10
8.027976 -4.0425282 0.11507778 10
10.38619 -0.47402912 -0.049715832 9
7.2018065 -5.0094824 0.13719933 11
7.73665 -4.3967543 0.12462096 11
6.6720214 -5.4510536 0.15368192 11
5.9548616 -6.1744418 0.15378921 12
9.9743662 -1.3736436 -0.010370808 8
7.0719123 -5.1305976 0.14089768 11
8.9685869 -2.9914417 0.061692163 11
6.4628539 -5.6530328 0.15603869 12
6.1626892 -5.9286571 0.15849786 12
10.523754 -0.23301965 -0.065347865 6
6.4991355 -5.6487718 0.15317075 12
5.7563396 -6.3885837 0.14982574 12
10.052036 -1.2120782 -0.017076807 7
6.9821744 -5.2142406 0.14319591 10
9.8751831 -1.5623089 -0.0019919444 8
8.288085 -3.7612736 0.10231869 9
6.1239209 -5.9720507 0.15795045 12
8.7721205 -3.18993 0.075768277 10
9.3762026 -2.3736763 0.036483213 10
8.0884619 -4.0037661 0.11078469 9
6.3502793 -5.7870131 0.15464596 12
8.2240648 -3.7986231 0.1073374 9
9.8052006 -1.6545684 0.0044810008 8
8.6598253 -3.314667 0.082906768 10
6.4167771 -5.7315664 0.15353052 12
7.1826773 -5.0322495 0.13741355 11
9.2435169 -2.6068065 0.044323012 10
8.2444458 -3.7744782 0.10639386 9
5.7747383 -6.3650918 0.15058546 12
10.611771 -0.02154631 -0.075694636 8
10.039869 -1.2449824 -0.016120391 7
10.223694 -0.78002477 -0.032415345 8
9.2621002 -2.5784457 0.043132946 11
10.358872 -0.57799917 -0.047075465 6
8.7314272 -3.2737572 0.076681063 11
9.6309519 -1.9607221 0.018106861 10
8.1874151 -3.8827891 0.10679416 9
9.0825996 -2.7934949 0.056261107 10
10.269912 -0.74878597 -0.037705734 8
9.1775608 -2.6546688 0.050313875 10
9.7152224 -1.8761119 0.010193987 8
7.1155434 -5.0562034 0.14218335 9
10.342813 -0.61388195 -0.045393661 8
7.8972645 -4.2456913 0.11707036 9
8.643177 -3.3720479 0.082150504 11
5.913682 -6.2596283 0.14933912 12
8.5457621 -3.4364629 0.090042159 10
9.7857075 -1.751636 0.0046961736 10
5.3851328 -6.9183545 0.12634222 12
9.462183 -2.294354 0.028816981 10
5.3679423 -6.9455881 0.12485342 12
6.2406611 -5.8425212 0.15934972 12
5.548738 -6.6930146 0.1365879 20
9.4464216 -2.3242402 0.029767795 10
6.741158 -5.4312391 0.14891522 12
7.4082484 -4.8271174 0.12972014 9
-1.0368223 -10.709431 -0.15762742 6
-2.0729806 -10.53109 -0.15998943 5
1.942392 -10.871327 -0.17658825 7
-0.88678783 -10.707606 -0.15495451 6
-3.4448712 -10.136955 -0.16410191 6
-1.8503008 -10.571436 -0.15866406 6
0.67742902 -10.833224 -0.1600513 6
5.2226338 -7.1041036 0.11902241 10
3.637774 -7.9548082 0.11776976 12
2.5532486 -10.805877 -0.18074878 9
2.4769838 -10.817204 -0.1803809 12
4.1891494 -7.6472154 0.12472288 23
-3.1220608 -10.243162 -0.16261776 6
2.4407239 -10.8223 -0.18019409 9
-1.7017395 -10.597019 -0.15794273 6
0.63938981 -10.826415 -0.15913625 6
4.4758596 -7.6112967 0.11274163 20
-0.62466425 -10.690427 -0.14918084 6
-1.3725541 -10.673112 -0.15961786 6
1.5584552 -10.889236 -0.17329116 7
-2.8039491 -10.351304 -0.16284736 6
5.1124201 -7.259634 0.11056535 12
4.3130012 -7.6260905 0.12028579 24
0.90779728 -10.855297 -0.16358908 6
1.0950407 -10.867678 -0.16621955 6
3.3990431 -8.2618647 0.093027279 9
3.7786126 -7.8233261 0.12603168 57
4.2203221 -7.64256 0.12355296 23
-0.58666104 -10.685802 -0.14814647 6
0.94379449 -10.853338 -0.16353257 6
4.7392993 -7.586163 0.099992916 39
-3.0152218 -10.28069 -0.16269298 6
-2.0353348 -10.535559 -0.15944274 6
-3.0856559 -10.253284 -0.16231675 6
-2.3660855 -10.459747 -0.16045125 6
3.8045354 -7.8118634 0.12607209 50
-2.1473532 -10.517886 -0.16059394 6
1.4024589 -10.885684 -0.17109866 7
-3.4063203 -10.147017 -0.16355367 8
1.9812255 -10.871538 -0.17725845 7
-1.8880048 -10.567627 -0.15921064 6
3.6845446 -7.9072046 0.12101083 15
-0.73627478 -10.69578 -0.15130611 5
4.7078338 -7.5928912 0.10116236 48
3.9863539 -7.7043819 0.12903659 23
-0.69630474 -10.691731 -0.15026839 6
5.2607403 -7.0535302 0.12151866 12
4.2487864 -7.6324835 0.1231101 25
1.2885691 -10.876324 -0.16884036 7
0.37650156 -10.78694 -0.15418775 6
0.0072279829 -10.7304 -0.14843149 6
3.6145198 -7.9773045 0.1162713 11
-2.5482213 -10.411013 -0.1607383 6
4.0689697 -7.673512 0.12819068 60
-0.28946066 -10.701317 -0.14694805 6
-1.5918033 -10.613524 -0.15728231 5
2.8436682 -10.695278 -0.17468901 13
-2.7659886 -10.36274 -0.16278751 6
-3.3020785 -10.180632 -0.16290171 6
-3.1608634 -10.234179 -0.16316648 6
-2.6948252 -10.381702 -0.16243155 6
1.9044365 -10.876871 -0.17664774 7
1.5971479 -10.890813 -0.17396148 7
1.2118206 -10.872822 -0.16774233 7
-0.39935005 -10.690357 -0.14663334 6
4.510994 -7.6124606 0.11060314 15
-2.6563711 -10.384585 -0.1613961 6
-2.4390421 -10.440635 -0.16056617 6
0.82937801 -10.843254 -0.16176255 6
3.6615314 -7.9298348 0.11951272 15
2.4029315 -10.829585 -0.18025322 7
3.4847128 -8.1423683 0.10315268 10
5.1319113 -7.2396255 0.11132686 12
0.79118681 -10.836979 -0.16084762 5
-2.5827296 -10.401393 -0.16079266 6
2.5917702 -10.801954 -0.18117602 9
-1.9607272 -10.55613 -0.15981264 5
3.7058713 -7.8808641 0.12299375 15
-1.1486597 -10.706533 -0.15926559 5
0.52767891 -10.817067 -0.15784951 6
1.711627 -10.880939 -0.17426927 7
-3.1972132 -10.223791 -0.16346748 6
4.6112771 -7.6021686 0.10588567 29
4.3777127 -7.6167135 0.11770611 23
0.26738048 -10.774897 -0.15289696 6
2.1335011 -10.851414 -0.17750736 7
-2.2216587 -10.504158 -0.16119845 6
4.6790318 -7.5979762 0.10233586 33
-2.1822028 -10.501435 -0.159674 6
5.1472306 -7.2079759 0.11354391 11
-2.7269869 -10.363982 -0.16150744 6
3.1267762 -9.0417118 0.012669368 10
2.513942 -10.805771 -0.17983563 10
5.1737609 -7.1877985 0.11382894 13
4.7704043 -7.5726175 0.099553987 27
-3.0492239 -10.263277 -0.16201551 6
4.5731049 -7.5962477 0.10875051 16
0.19246744 -10.750341 -0.15009017 6
4.6397452 -7.5906482 0.10544257 22
-2.9835455 -10.299302 -0.16361792 6
-1.7402418 -10.597637 -0.15897806 6
-2.5108173 -10.417184 -0.16019185 6
2.2119229 -10.854242 -0.17933388 7
4.4089556 -7.6113081 0.11653642 46
5.1854429 -7.1511502 0.11677139 12
1.8667339 -10.884248 -0.17695053 7
-0.5496819 -10.692911 -0.14857562 6
0.22995694 -10.754744 -0.15051861 6
-1.1104822 -10.705746 -0.1584744 5
-3.2634184 -10.19015 -0.16235335 6
-0.92554599 -10.715104 -0.15647765 6
-3.4781342 -10.118126 -0.16342326 8
5.246273 -7.0853653 0.11930291 12
0.56371546 -10.824307 -0.15876777 6
-2.3285794 -10.465264 -0.15990467 6
-2.4015749 -10.446414 -0.16001971 6
2.288358 -10.844781 -0.17970152 7
0.33884379 -10.775109 -0.15278466 6
3.4222879 -8.2362461 0.095013067 7
-0.80971438 -10.712127 -0.15434583 6
4.2781444 -7.6240635 0.12242465 24
-0.030360255 -10.733158 -0.14897795 6
1.0592597 -10.874099 -0.16676302 7
-2.1119702 -10.532288 -0.16126938 5
1.8284585 -10.887563 -0.17676683 7
4.5452332 -7.6117315 0.108707 16
-3.3416369 -10.179077 -0.1644264 6
3.5925407 -7.9991698 0.11477475 12
2.3221552 -10.82653 -0.17818637 7
3.1622589 -8.8224373 0.037094519 8
-1.6632668 -10.596261 -0.15690739 6
-2.8418093 -10.345976 -0.16363795 6
-2.9481759 -10.312715 -0.16380568 6
4.0387077 -7.6793485 0.12911825 37
3.9569039 -7.7116923 0.12972157 19
-0.43623412 -10.681791 -0.14596041 6
2.020679 -10.875535 -0.17841513 7
3.1166394 -9.1216564 0.0036367606 12
0.45206451 -10.810207 -0.15699334 6
-3.516607 -10.118413 -0.16518994 8
1.3281573 -10.89072 -0.17097147 7
2.3603034 -10.821481 -0.17837043 7
0.75305575 -10.83057 -0.15993257 6
-2.2592614 -10.499023 -0.16174515 5
-2.4785662 -10.442389 -0.16209073 6
1.5210903 -10.899359 -0.17408068 7
5.0989928 -7.2945514 0.10786383 12
2.0946598 -10.851746 -0.17683692 7
0.11538362 -10.756985 -0.15118594 6
-3.2265184 -10.198901 -0.16180785 6
4.9908061 -7.4110131 0.10282163 16
4.0939803 -7.656867 0.12871711 59
-2.9086001 -10.306505 -0.16155012 6
4.4388909 -7.6064892 0.1153646 32
-3.3749568 -10.171206 -0.16496642 6
0.15319949 -10.741807 -0.14917691 6
-2.8784933 -10.336719 -0.16393955 6
1.1326826 -10.860998 -0.16567297 6
-2.623359 -10.40642 -0.16280623 6
3.8754241 -7.7516241 0.12935083 22
1.4805357 -10.879743 -0.1712199 7
4.1526694 -7.641089 0.12734656 24
0.081729971 -10.750287 -0.15050788 6
3.554352 -8.0702152 0.10837905 31
0.30495891 -10.786978 -0.15430017 6
0.6012001 -10.811537 -0.15724666 6
3.9121273 -7.7566209 0.12697117 23
2.1707077 -10.841154 -0.1769615 7
2.0595679 -10.875467 -0.17908533 7
3.8491614 -7.7657461 0.12906604 22
5.0092063 -7.3829775 0.10455613 19
1.3648517 -10.873354 -0.16920812 7
-1.520726 -10.644319 -0.1593637 6
-0.657511 -10.679454 -0.14825781 6
-0.32583386 -10.683222 -0.14505573 6
0.71580487 -10.847835 -0.16194077 6
-1.4802215 -10.631163 -0.15686281 6
-0.067971803 -10.735783 -0.14952441 6
4.0084553 -7.6850677 0.13004582 23
-3.5842769 -10.083876 -0.16432185 6
0.41412246 -10.782761 -0.15364118 6
1.7872881 -10.869098 -0.173907 7
1.1726353 -10.859982 -0.16585417 6
1.634907 -10.900367 -0.17560811 7
-1.0004114 -10.722034 -0.15854497 5
-1.9255247 -10.571844 -0.16073199 6
1.4426591 -10.903617 -0.17371638 7
5.1966887 -7.119482 0.11922567 12
3.4605379 -8.1644354 0.10165267 9
1.6734253 -10.899704 -0.176035 7
-0.36305952 -10.708704 -0.14852591 6
-1.7787731 -10.598115 -0.16001351 6
2.2515247 -10.8574 -0.18049045 7
3.4474986 -8.2161369 0.096271083 6
-1.6248239 -10.595365 -0.15587206 6
-1.5578704 -10.637775 -0.15942211 6
0.4899739 -10.821643 -0.15839596 6
5.0832233 -7.326128 0.10564618 14
-1.995116 -10.528263 -0.15742989 6
0.98119974 -10.84322 -0.16249903 6
1.0213051 -10.87656 -0.16682263 7
3.8220305 -7.7779679 0.12902372 22
-0.25296932 -10.71929 -0.14884038 6
-0.47291768 -10.671115 -0.14504321 6
-1.1906843 -10.720676 -0.16176875 5
4.1206837 -7.6436982 0.12875871 23
-0.1413281 -10.697012 -0.14525314 6
-2.2978234 -10.497603 -0.1627806 6
3.7246995 -7.8490019 0.12570374 20
5.0640655 -7.3526773 0.10415415 20
-0.8451423 -10.690306 -0.15220828 5
3.3839521 -8.3055229 0.088617131 9
-1.8094394 -10.559546 -0.15616281 6
-0.96297628 -10.726629 -0.15848608 5
-0.17866457 -10.695285 -0.14531179 6
4.3543863 -7.6402678 0.11645131 22
-1.228097 -10.715285 -0.16182764 6
0.87049252 -10.869127 -0.16510971 6
3.7473118 -7.8262029 0.12720124 33
4.8129606 -7.5844426 0.09572117 16
1.7480594 -10.864257 -0.17274995 7
3.1334305 -8.9523344 0.022914929 6
3.5001023 -8.0980415 0.10756318 9
5.0242696 -7.3498793 0.10701649 18
3.9425356 -7.7512846 0.12604384 23
-0.10398579 -10.69861 -0.14519449 6
-3.5547521 -10.112317 -0.16622491 6
-1.3031645 -10.706074 -0.16218932 5
-1.4424474 -10.633519 -0.156316 6
3.0538921 -9.8777161 -0.083461121 15
3.5809402 -8.0509958 0.10939543 19
-0.50984895 -10.664271 -0.14461382 6
0.04521909 -10.711636 -0.14593478 6
-1.3389643 -10.702543 -0.16248937 6
-0.77687317 -10.723568 -0.15526898 6
3.145834 -8.8776731 0.031220121 8
1.2524353 -10.901344 -0.17157765 7
3.3644359 -8.3422365 0.085174844 19
-1.2660764 -10.71369 -0.16237469 6
3.3053272 -8.3655729 0.084838912 5
-0.2161572 -10.733171 -0.15024467 6
3.2854691 -8.3978558 0.081883475 7
-1.0718684 -10.686864 -0.15548928 5
-1.4053186 -10.639659 -0.15625758 6
2.8809788 -10.68646 -0.1746306 15
3.3257835 -8.3308659 0.088038847 12
3.5188687 -8.0629416 0.11076061 18
3.1669977 -8.7374783 0.046849772 6
-5.586576 -4.8291159 0.22265182 55
-6.2752876 -3.981005 0.21229075 19
-4.4735823 -6.733386 0.146686 58
-7.7982111 -3.0181575 0.092153355 11
-8.0227203 -1.8130606 0.10688798 100
-7.9669991 -2.1022067 0.10551886 105
-5.5170541 -4.9100394 0.22300635 54
-5.7066803 -4.6877146 0.22172903 47
-6.0232091 -4.2948012 0.21805529 53
-7.7184477 -3.3094249 0.088384911 13
-7.8451214 -2.8101666 0.095243976 11
-4.2224641 -7.6599679 0.068615362 48
-8.0097456 -1.8988878 0.10617869 75
-7.6836014 -3.4234238 0.086979434 13
-7.8259602 -2.901082 0.093813583 11
-7.9158602 -2.4596117 0.10000055 11
-5.8260803 -4.4792128 0.22519337 54
-5.0078378 -5.7531099 0.19774328 49
-6.6386204 -3.8145516 0.18319921 13
-7.9027233 -2.5168743 0.099534914 11
-5.8823514 -4.4213581 0.22364138 50
-5.6769257 -4.7322311 0.22128926 49
-7.3038359 -3.6745324 0.11731724 12
-6.3508286 -3.9316978 0.2072963 19
-7.203135 -3.691102 0.12771277 12
-5.1467247 -5.548635 0.20385824 49
-5.0993595 -5.6171427 0.20198403 51
-7.9882059 -2.0166118 0.10548382 51
-7.8853741 -2.6059966 0.098345205 11
-7.6900196 -3.3930933 0.087699816 19
-4.2938461 -7.4796734 0.082880184 50
-4.28017 -7.5160856 0.079977557 50
-7.8487577 -2.7811103 0.095969006 11
-7.8847075 -2.6342318 0.097371981 11
-4.1455784 -7.8357911 0.054846689 48
-7.8408852 -2.8406579 0.094520137 11
-5.6934075 -4.7112184 0.22126292 49
-4.8358445 -6.0132647 0.18826918 52
-4.3953772 -7.0816817 0.11707978 48
-6.1777582 -4.1089439 0.2143964 8
-5.9783401 -4.3289776 0.22032009 50
-5.4599481 -5.0016384 0.221148 59
-7.8068323 -2.9890664 0.092382953 12
-4.2108269 -7.7014713 0.064978644 56
-7.9129229 -2.490119 0.09927468 12
-4.1116023 -7.9007049 0.050026581 48
-5.1646605 -5.5280609 0.20407335 50
-4.7499924 -6.1221957 0.18499385 56
-5.7214346 -4.6653867 0.2219492 44
-5.0783448 -5.6346445 0.20226119 50
-7.8716869 -2.6616809 0.097880408 10
-7.3596125 -3.6683497 0.11137967 12
-7.9673004 -2.1331494 0.10454409 101
-6.4305415 -3.8853877 0.20156418 16
-6.7210093 -3.7958741 0.17526989 13
-5.9550266 -4.3453441 0.22157578 49
-5.8384604 -4.4553576 0.22566091 64
-5.2827086 -5.3045239 0.21265797 50
-7.7961216 -3.0464776 0.091182277 11
-5.7604485 -4.5945449 0.2233489 48
-6.8835902 -3.7559609 0.15965824 16
-5.1111908 -5.5862865 0.20367102 54
-4.0047507 -9.387804 -0.10649915 15
-7.735508 -3.219703 0.090549752 10
-6.9619913 -3.7338712 0.15222244 19
-7.7626801 -3.1342819 0.091236636 11
-7.8640594 -2.7544243 0.0952131 11
-4.8225541 -6.0403347 0.18682806 56
-7.9972649 -1.926663 0.10693018 92
-5.5987697 -4.8046703 0.22336338 50
-4.7649646 -6.096797 0.1861885 55
-5.4826336 -4.9507713 0.22306125 52
-6.6815495 -3.8062797 0.17898808 16
-4.5110674 -6.637774 0.15344994 52
-5.73453 -4.6418076 0.22241561 50
-7.919488 -2.3980772 0.10169964 11
-7.7371044 -3.2530482 0.088841841 14
-7.8919916 -2.5450265 0.099796101 11
-7.9540405 -2.1606123 0.10529666 92
-5.5074577 -4.936842 0.22180329 53
-6.1539268 -4.1575212 0.21370362 12
-5.8184128 -4.5065546 0.22398727 51
-4.2501678 -7.5854945 0.074663922 50
-6.5286603 -3.8451636 0.1933658 12
-4.0298462 -8.3559694 0.0058038663 22
-3.8152406 -9.8684034 -0.15079589 13
-7.9849701 -2.0465996 0.10500209 38
-6.18365 -4.0809207 0.2156053 8
-7.6722441 -3.4848626 0.085292265 12
-7.9642963 -2.072262 0.10674123 100
-6.5946484 -3.8204026 0.18765567 13
-7.768013 -3.1038673 0.091958806 11
-6.4595828 -3.8705926 0.19932459 26
-7.9019976 -2.5796597 0.097343728 11
-7.8397818 -2.8738949 0.093303844 11
-7.8106909 -2.9261148 0.094569251 11
-8.0201969 -1.870617 0.10567431 106
-5.0463161 -5.6761827 0.20133732 48
-4.9742455 -5.7975864 0.19657825 50
-4.8052883 -6.0628419 0.18612449 57
-6.8306723 -3.7586663 0.16534738 12
-5.1237059 -5.5601611 0.20486949 51
-4.3979092 -7.0321898 0.12194972 47
-6.5587206 -3.8320279 0.190881 12
-7.7152443 -3.2753079 0.09033899 14
-6.1100345 -4.2252378 0.21377395 40
-7.1652937 -3.7050824 0.13118486 12
-6.0919347 -4.2455192 0.21429025 52
-4.777267 -6.0683317 0.18787478 50
-7.9316254 -2.3703434 0.10119264 11
-6.0728641 -4.2635074 0.21505181 51
-8.0029173 -1.9893893 0.1044852 72
-6.931932 -3.7489443 0.15470748 19
-5.7506952 -4.6205945 0.2223898 52
-7.9885569 -1.9552804 0.10718815 85
-8.017662 -1.7799336 0.10835759 105
-7.7928638 -3.0776532 0.090212986 11
-4.1842213 -7.7768598 0.058684751 57
-7.8604593 -2.6896904 0.098142311 11
-5.8523602 -4.4326272 0.22588234 52
-7.0505848 -3.7127697 0.14355199 12
-7.9483404 -2.2209964 0.10408823 100
-6.3131618 -3.9408379 0.21076803 19
-4.9998322 -5.7848563 0.19556282 48
-7.8755074 -2.7264147 0.09495084 11
-7.9264803 -2.3376913 0.10290627 12
-6.1937761 -4.0571871 0.21607636 13
-8.0218821 -1.7503614 0.1085941 100
-7.0015297 -3.7218506 0.14850406 13
-7.7712803 -3.1669292 0.088786408 12
-7.9349928 -2.3073969 0.10289221 52
-6.7464733 -3.7777629 0.17352329 15
-7.6878262 -3.3624945 0.089408919 19
-5.463809 -4.9697547 0.22333501 52
-4.024025 -8.5622005 -0.016363101 16
-4.2600994 -7.5423203 0.078547165 51
-4.6096067 -6.3924193 0.17010812 58
-4.1869245 -7.7224317 0.064285323 55
-8.0237532 -1.7218393 0.10907798 100
-5.185328 -5.5102334 0.20379679 53
-4.8633509 -5.9605651 0.19090597 49
-5.6309719 -4.7963691 0.22087525 50
-5.9098163 -4.3755703 0.22408478 51
-7.7985611 -2.9538512 0.094832584 12
-6.1443763 -4.1833744 0.21298794 19
-6.387826 -3.9235151 0.20382564 21
-3.7087963 -9.9939146 -0.15988822 15
-7.9501143 -2.2524996 0.10286741 120
-6.1734238 -4.1380415 0.21294139 8
-5.0445161 -5.7161059 0.19792865 50
-4.3741798 -7.1576481 0.11077754 46
-6.2857361 -3.9558723 0.21276127 20
-5.9139605 -4.4110785 0.22115414 51
-5.0299506 -5.7406487 0.19697706 52
-5.7573819 -4.558969 0.22627781 50
-7.6673002 -3.5159855 0.084325835 12
-4.16993 -7.8149443 0.055539295 52
-7.9339142 -2.4335997 0.09875302 11
-3.7278941 -9.9411497 -0.15480085 15
-4.6392083 -6.3845177 0.16859905 56
-7.6513495 -3.5422854 0.084838912 11
-4.2471333 -7.6406093 0.069063708 56
